-3.542857 -0.809017 0.587785
-3.542857 -0.866025 0.500000
-3.542857 -0.913545 0.406737
-3.542857 -0.951057 0.309017
-3.542857 -0.978148 0.207912
-3.542857 -0.994522 0.104528
-3.314286 -1.000000 -0.000000
-3.314286 -0.994522 -0.104528
-3.314286 -0.978148 -0.207912
-3.314286 -0.951057 -0.309017
-3.314286 -0.913545 -0.406737
-3.314286 -0.866025 -0.500000
-3.314286 -0.809017 -0.587785
-3.314286 -0.743145 -0.669131
-3.314286 -0.669131 -0.743145
-3.314286 -0.587785 -0.809017
-3.314286 -0.500000 -0.866025
-3.314286 -0.406737 -0.913545
-3.314286 -0.309017 -0.951057
-3.314286 -0.207912 -0.978148
-3.314286 -0.104528 -0.994522
-3.314286 0.000000 -1.000000
-3.314286 0.104528 -0.994522
-3.314286 0.207912 -0.978148
-3.314286 0.309017 -0.951057
-3.314286 0.406737 -0.913545
-3.314286 0.500000 -0.866025
-3.314286 0.587785 -0.809017
-3.314286 0.669131 -0.743145
-3.314286 0.743145 -0.669131
-3.314286 0.809017 -0.587785
-3.314286 0.866025 -0.500000
-3.314286 0.913545 -0.406737
-3.314286 0.951057 -0.309017
-3.314286 0.978148 -0.207912
-3.314286 0.994522 -0.104528
-3.314286 1.000000 0.000000
-3.314286 0.994522 0.104528
-3.314286 0.978148 0.207912
-3.314286 0.951057 0.309017
-3.314286 0.913545 0.406737
-3.314286 0.866025 0.500000
-3.314286 0.809017 0.587785
-3.314286 0.743145 0.669131
-3.314286 0.669131 0.743145
-3.314286 0.587785 0.809017
-3.314286 0.500000 0.866025
-3.314286 0.406737 0.913545
-3.314286 0.309017 0.951057
-3.314286 0.207912 0.978148
-3.314286 0.104528 0.994522
-3.314286 0.000000 1.000000
-3.314286 -0.104528 0.994522
-3.314286 -0.207912 0.978148
-3.314286 -0.309017 0.951057
-3.314286 -0.406737 0.913545
-3.314286 -0.500000 0.866025
-3.314286 -0.587785 0.809017
-3.314286 -0.669131 0.743145
-3.314286 -0.743145 0.669131
-3.314286 -0.809017 0.587785
-3.314286 -0.866025 0.500000
-3.314286 -0.913545 0.406737
-3.314286 -0.951057 0.309017
-3.314286 -0.978148 0.207912
-3.314286 -0.994522 0.104528
-3.085714 -1.000000 -0.000000
-3.085714 -0.994522 -0.104528
-3.085714 -0.978148 -0.207912
-3.085714 -0.951057 -0.309017
-3.085714 -0.913545 -0.406737
-3.085714 -0.866025 -0.500000
-3.085714 -0.809017 -0.587785
-3.085714 -0.743145 -0.669131
-3.085714 -0.669131 -0.743145
-3.085714 -0.587785 -0.809017
-3.085714 -0.500000 -0.866025
-3.085714 -0.406737 -0.913545
-3.085714 -0.309017 -0.951057
-3.085714 -0.207912 -0.978148
-3.085714 -0.104528 -0.994522
-3.085714 0.000000 -1.000000
-3.085714 0.104528 -0.994522
-3.085714 0.207912 -0.978148
-3.085714 0.309017 -0.951057
-3.085714 0.406737 -0.913545
-3.085714 0.500000 -0.866025
-3.085714 0.587785 -0.809017
-3.085714 0.669131 -0.743145
-3.085714 0.743145 -0.669131
-3.085714 0.809017 -0.587785
-3.085714 0.866025 -0.500000
-3.085714 0.913545 -0.406737
-3.085714 0.951057 -0.309017
-3.085714 0.978148 -0.207912
-3.085714 0.994522 -0.104528
-3.085714 1.000000 0.000000
-3.085714 0.994522 0.104528
-3.085714 0.978148 0.207912
-3.085714 0.951057 0.309017
-3.085714 0.913545 0.406737
-3.085714 0.866025 0.500000
-3.085714 0.809017 0.587785
-3.085714 0.743145 0.669131
-3.085714 0.669131 0.743145
-3.085714 0.587785 0.809017
-3.085714 0.500000 0.866025
-3.085714 0.406737 0.913545
-3.085714 0.309017 0.951057
-3.085714 0.207912 0.978148
-3.085714 0.104528 0.994522
-3.085714 0.000000 1.000000
-3.085714 -0.104528 0.994522
-3.085714 -0.207912 0.978148
-3.085714 -0.309017 0.951057
-3.085714 -0.406737 0.913545
-3.085714 -0.500000 0.866025
-3.085714 -0.587785 0.809017
-3.085714 -0.669131 0.743145
-3.085714 -0.743145 0.669131
-3.085714 -0.809017 0.587785
-3.085714 -0.866025 0.500000
-3.085714 -0.913545 0.406737
-3.085714 -0.951057 0.309017
-3.085714 -0.978148 0.207912
-3.085714 -0.994522 0.104528
-2.857143 -1.000000 -0.000000
-2.857143 -0.994522 -0.104528
-2.857143 -0.978148 -0.207912
-2.857143 -0.951057 -0.309017
-2.857143 -0.913545 -0.406737
-2.857143 -0.866025 -0.500000
-2.857143 -0.809017 -0.587785
-2.857143 -0.743145 -0.669131
-2.857143 -0.669131 -0.743145
-2.857143 -0.587785 -0.809017
-2.857143 -0.500000 -0.866025
-2.857143 -0.406737 -0.913545
-2.857143 -0.309017 -0.951057
-2.857143 -0.207912 -0.978148
-2.857143 -0.104528 -0.994522
-2.857143 0.000000 -1.000000
-2.857143 0.104528 -0.994522
-2.857143 0.207912 -0.978148
-2.857143 0.309017 -0.951057
-2.857143 0.406737 -0.913545
-2.857143 0.500000 -0.866025
-2.857143 0.587785 -0.809017
-2.857143 0.669131 -0.743145
-2.857143 0.743145 -0.669131
-2.857143 0.809017 -0.587785
-2.857143 0.866025 -0.500000
-2.857143 0.913545 -0.406737
-2.857143 0.951057 -0.309017
-2.857143 0.978148 -0.207912
-2.857143 0.994522 -0.104528
-2.857143 1.000000 0.000000
-2.857143 0.994522 0.104528
-2.857143 0.978148 0.207912
-2.857143 0.951057 0.309017
-2.857143 0.913545 0.406737
-2.857143 0.866025 0.500000
-2.857143 0.809017 0.587785
-2.857143 0.743145 0.669131
-2.857143 0.669131 0.743145
-2.857143 0.587785 0.809017
-2.857143 0.500000 0.866025
-2.857143 0.406737 0.913545
-2.857143 0.309017 0.951057
-2.857143 0.207912 0.978148
-2.857143 0.104528 0.994522
-2.857143 0.000000 1.000000
-2.857143 -0.104528 0.994522
-2.857143 -0.207912 0.978148
-2.857143 -0.309017 0.951057
-2.857143 -0.406737 0.913545
-2.857143 -0.500000 0.866025
-2.857143 -0.587785 0.809017
-2.857143 -0.669131 0.743145
-2.857143 -0.743145 0.669131
-2.857143 -0.809017 0.587785
-2.857143 -0.866025 0.500000
-2.857143 -0.913545 0.406737
-2.857143 -0.951057 0.309017
-2.857143 -0.978148 0.207912
-2.857143 -0.994522 0.104528
-2.628571 -1.000000 -0.000000
-2.628571 -0.994522 -0.104528
-2.628571 -0.978148 -0.207912
-2.628571 -0.951057 -0.309017
-2.628571 -0.913545 -0.406737
-2.628571 -0.866025 -0.500000
-2.628571 -0.809017 -0.587785
-2.628571 -0.743145 -0.669131
-2.628571 -0.669131 -0.743145
-2.628571 -0.587785 -0.809017
-2.628571 -0.500000 -0.866025
-2.628571 -0.406737 -0.913545
-2.628571 -0.309017 -0.951057
-2.628571 -0.207912 -0.978148
-2.628571 -0.104528 -0.994522
-2.628571 0.000000 -1.000000
-2.628571 0.104528 -0.994522
-2.628571 0.207912 -0.978148
-2.628571 0.309017 -0.951057
-2.628571 0.406737 -0.913545
-2.628571 0.500000 -0.866025
-2.628571 0.587785 -0.809017
-2.628571 0.669131 -0.743145
-2.628571 0.743145 -0.669131
-2.628571 0.809017 -0.587785
-2.628571 0.866025 -0.500000
-2.628571 0.913545 -0.406737
-2.628571 0.951057 -0.309017
-2.628571 0.978148 -0.207912
-2.628571 0.994522 -0.104528
-2.628571 1.000000 0.000000
-2.628571 0.994522 0.104528
-2.628571 0.978148 0.207912
-2.628571 0.951057 0.309017
-2.628571 0.913545 0.406737
-2.628571 0.866025 0.500000
-2.628571 0.809017 0.587785
-2.628571 0.743145 0.669131
-2.628571 0.669131 0.743145
-2.628571 0.587785 0.809017
-2.628571 0.500000 0.866025
-2.628571 0.406737 0.913545
-2.628571 0.309017 0.951057
-2.628571 0.207912 0.978148
-2.628571 0.104528 0.994522
-2.628571 0.000000 1.000000
-2.628571 -0.104528 0.994522
-2.628571 -0.207912 0.978148
-2.628571 -0.309017 0.951057
-2.628571 -0.406737 0.913545
-2.628571 -0.500000 0.866025
-2.628571 -0.587785 0.809017
-2.628571 -0.669131 0.743145
-2.628571 -0.743145 0.669131
-2.628571 -0.809017 0.587785
-2.628571 -0.866025 0.500000
-2.628571 -0.913545 0.406737
-2.628571 -0.951057 0.309017
-2.628571 -0.978148 0.207912
-2.628571 -0.994522 0.104528
-2.400000 -1.000000 -0.000000
-2.400000 -0.994522 -0.104528
-2.400000 -0.978148 -0.207912
-2.400000 -0.951057 -0.309017
-2.400000 -0.913545 -0.406737
-2.400000 -0.866025 -0.500000
-2.400000 -0.809017 -0.587785
-2.400000 -0.743145 -0.669131
-2.400000 -0.669131 -0.743145
-2.400000 -0.587785 -0.809017
-2.400000 -0.500000 -0.866025
-2.400000 -0.406737 -0.913545
-2.400000 -0.309017 -0.951057
-2.400000 -0.207912 -0.978148
-2.400000 -0.104528 -0.994522
-2.400000 0.000000 -1.000000
-2.400000 0.104528 -0.994522
-2.400000 0.207912 -0.978148
-2.400000 0.309017 -0.951057
-2.400000 0.406737 -0.913545
-2.400000 0.500000 -0.866025
-2.400000 0.587785 -0.809017
-2.400000 0.669131 -0.743145
-2.400000 0.743145 -0.669131
-2.400000 0.809017 -0.587785
-2.400000 0.866025 -0.500000
-2.400000 0.913545 -0.406737
-2.400000 0.951057 -0.309017
-2.400000 0.978148 -0.207912
-2.400000 0.994522 -0.104528
-2.400000 1.000000 0.000000
-2.400000 0.994522 0.104528
-2.400000 0.978148 0.207912
-2.400000 0.951057 0.309017
-2.400000 0.913545 0.406737
-2.400000 0.866025 0.500000
-2.400000 0.809017 0.587785
-2.400000 0.743145 0.669131
-2.400000 0.669131 0.743145
-2.400000 0.587785 0.809017
-2.400000 0.500000 0.866025
-2.400000 0.406737 0.913545
-2.400000 0.309017 0.951057
-2.400000 0.207912 0.978148
-2.400000 0.104528 0.994522
-2.400000 0.000000 1.000000
-2.400000 -0.104528 0.994522
-2.400000 -0.207912 0.978148
-2.400000 -0.309017 0.951057
-2.400000 -0.406737 0.913545
-2.400000 -0.500000 0.866025
-2.400000 -0.587785 0.809017
-2.400000 -0.669131 0.743145
-2.400000 -0.743145 0.669131
-2.400000 -0.809017 0.587785
-2.400000 -0.866025 0.500000
-2.400000 -0.913545 0.406737
-2.400000 -0.951057 0.309017
-2.400000 -0.978148 0.207912
-2.400000 -0.994522 0.104528
-2.171429 -1.000000 -0.000000
-2.171429 -0.994522 -0.104528
-2.171429 -0.978148 -0.207912
-2.171429 -0.951057 -0.309017
-2.171429 -0.913545 -0.406737
-2.171429 -0.866025 -0.500000
-2.171429 -0.809017 -0.587785
-2.171429 -0.743145 -0.669131
-2.171429 -0.669131 -0.743145
-2.171429 -0.587785 -0.809017
-2.171429 -0.500000 -0.866025
-2.171429 -0.406737 -0.913545
-2.171429 -0.309017 -0.951057
-2.171429 -0.207912 -0.978148
-2.171429 -0.104528 -0.994522
-2.171429 0.000000 -1.000000
-2.171429 0.104528 -0.994522
-2.171429 0.207912 -0.978148
-2.171429 0.309017 -0.951057
-2.171429 0.406737 -0.913545
-2.171429 0.500000 -0.866025
-2.171429 0.587785 -0.809017
-2.171429 0.669131 -0.743145
-2.171429 0.743145 -0.669131
-2.171429 0.809017 -0.587785
-2.171429 0.866025 -0.500000
-2.171429 0.913545 -0.406737
-2.171429 0.951057 -0.309017
-2.171429 0.978148 -0.207912
-2.171429 0.994522 -0.104528
-2.171429 1.000000 0.000000
-2.171429 0.994522 0.104528
-2.171429 0.978148 0.207912
-2.171429 0.951057 0.309017
-2.171429 0.913545 0.406737
-2.171429 0.866025 0.500000
-2.171429 0.809017 0.587785
-2.171429 0.743145 0.669131
-2.171429 0.669131 0.743145
-2.171429 0.587785 0.809017
-2.171429 0.500000 0.866025
-2.171429 0.406737 0.913545
-2.171429 0.309017 0.951057
-2.171429 0.207912 0.978148
-2.171429 0.104528 0.994522
-2.171429 0.000000 1.000000
-2.171429 -0.104528 0.994522
-2.171429 -0.207912 0.978148
-2.171429 -0.309017 0.951057
-2.171429 -0.406737 0.913545
-2.171429 -0.500000 0.866025
-2.171429 -0.587785 0.809017
-2.171429 -0.669131 0.743145
-2.171429 -0.743145 0.669131
-2.171429 -0.809017 0.587785
-2.171429 -0.866025 0.500000
-2.171429 -0.913545 0.406737
-2.171429 -0.951057 0.309017
-2.171429 -0.978148 0.207912
-2.171429 -0.994522 0.104528
-1.942857 -1.000000 -0.000000
-1.942857 -0.994522 -0.104528
-1.942857 -0.978148 -0.207912
-1.942857 -0.951057 -0.309017
-1.942857 -0.913545 -0.406737
-1.942857 -0.866025 -0.500000
-1.942857 -0.809017 -0.587785
-1.942857 -0.743145 -0.669131
-1.942857 -0.669131 -0.743145
-1.942857 -0.587785 -0.809017
-1.942857 -0.500000 -0.866025
-1.942857 -0.406737 -0.913545
-1.942857 -0.309017 -0.951057
-1.942857 -0.207912 -0.978148
-1.942857 -0.104528 -0.994522
-1.942857 0.000000 -1.000000
-1.942857 0.104528 -0.994522
-1.942857 0.207912 -0.978148
-1.942857 0.309017 -0.951057
-1.942857 0.406737 -0.913545
-1.942857 0.500000 -0.866025
-1.942857 0.587785 -0.809017
-1.942857 0.669131 -0.743145
-1.942857 0.743145 -0.669131
-1.942857 0.809017 -0.587785
-1.942857 0.866025 -0.500000
-1.942857 0.913545 -0.406737
-1.942857 0.951057 -0.309017
-1.942857 0.978148 -0.207912
-1.942857 0.994522 -0.104528
-1.942857 1.000000 0.000000
-1.942857 0.994522 0.104528
-1.942857 0.978148 0.207912
-1.942857 0.951057 0.309017
-1.942857 0.913545 0.406737
-1.942857 0.866025 0.500000
-1.942857 0.809017 0.587785
-1.942857 0.743145 0.669131
-1.942857 0.669131 0.743145
-1.942857 0.587785 0.809017
-1.942857 0.500000 0.866025
-1.942857 0.406737 0.913545
-1.942857 0.309017 0.951057
-1.942857 0.207912 0.978148
-1.942857 0.104528 0.994522
-1.942857 0.000000 1.000000
-1.942857 -0.104528 0.994522
-1.942857 -0.207912 0.978148
-1.942857 -0.309017 0.951057
-1.942857 -0.406737 0.913545
-1.942857 -0.500000 0.866025
-1.942857 -0.587785 0.809017
-1.942857 -0.669131 0.743145
-1.942857 -0.743145 0.669131
-1.942857 -0.809017 0.587785
-1.942857 -0.866025 0.500000
-1.942857 -0.913545 0.406737
-1.942857 -0.951057 0.309017
-1.942857 -0.978148 0.207912
-1.942857 -0.994522 0.104528
-1.714286 -1.000000 -0.000000
-1.714286 -0.994522 -0.104528
-1.714286 -0.978148 -0.207912
-1.714286 -0.951057 -0.309017
-1.714286 -0.913545 -0.406737
-1.714286 -0.866025 -0.500000
-1.714286 -0.809017 -0.587785
-1.714286 -0.743145 -0.669131
-1.714286 -0.669131 -0.743145
-1.714286 -0.587785 -0.809017
-1.714286 -0.500000 -0.866025
-1.714286 -0.406737 -0.913545
-1.714286 -0.309017 -0.951057
-1.714286 -0.207912 -0.978148
-1.714286 -0.104528 -0.994522
-1.714286 0.000000 -1.000000
-1.714286 0.104528 -0.994522
-1.714286 0.207912 -0.978148
-1.714286 0.309017 -0.951057
-1.714286 0.406737 -0.913545
-1.714286 0.500000 -0.866025
-1.714286 0.587785 -0.809017
-1.714286 0.669131 -0.743145
-1.714286 0.743145 -0.669131
-1.714286 0.809017 -0.587785
-1.714286 0.866025 -0.500000
-1.714286 0.913545 -0.406737
-1.714286 0.951057 -0.309017
-1.714286 0.978148 -0.207912
-1.714286 0.994522 -0.104528
-1.714286 1.000000 0.000000
-1.714286 0.994522 0.104528
-1.714286 0.978148 0.207912
-1.714286 0.951057 0.309017
-1.714286 0.913545 0.406737
-1.714286 0.866025 0.500000
-1.714286 0.809017 0.587785
-1.714286 0.743145 0.669131
-1.714286 0.669131 0.743145
-1.714286 0.587785 0.809017
-1.714286 0.500000 0.866025
-1.714286 0.406737 0.913545
-1.714286 0.309017 0.951057
-1.714286 0.207912 0.978148
-1.714286 0.104528 0.994522
-1.714286 0.000000 1.000000
-1.714286 -0.104528 0.994522
-1.714286 -0.207912 0.978148
-1.714286 -0.309017 0.951057
-1.714286 -0.406737 0.913545
-1.714286 -0.500000 0.866025
-1.714286 -0.587785 0.809017
-1.714286 -0.669131 0.743145
-1.714286 -0.743145 0.669131
-1.714286 -0.809017 0.587785
-1.714286 -0.866025 0.500000
-1.714286 -0.913545 0.406737
-1.714286 -0.951057 0.309017
-1.714286 -0.978148 0.207912
-1.714286 -0.994522 0.104528
-1.485714 -1.000000 -0.000000
-1.485714 -0.994522 -0.104528
-1.485714 -0.978148 -0.207912
-1.485714 -0.951057 -0.309017
-1.485714 -0.913545 -0.406737
-1.485714 -0.866025 -0.500000
-1.485714 -0.809017 -0.587785
-1.485714 -0.743145 -0.669131
-1.485714 -0.669131 -0.743145
-1.485714 -0.587785 -0.809017
-1.485714 -0.500000 -0.866025
-1.485714 -0.406737 -0.913545
-1.485714 -0.309017 -0.951057
-1.485714 -0.207912 -0.978148
-1.485714 -0.104528 -0.994522
-1.485714 0.000000 -1.000000
-1.485714 0.104528 -0.994522
-1.485714 0.207912 -0.978148
-1.485714 0.309017 -0.951057
-1.485714 0.406737 -0.913545
-1.485714 0.500000 -0.866025
-1.485714 0.587785 -0.809017
-1.485714 0.669131 -0.743145
-1.485714 0.743145 -0.669131
-1.485714 0.809017 -0.587785
-1.485714 0.866025 -0.500000
-1.485714 0.913545 -0.406737
-1.485714 0.951057 -0.309017
-1.485714 0.978148 -0.207912
-1.485714 0.994522 -0.104528
-1.485714 1.000000 0.000000
-1.485714 0.994522 0.104528
-1.485714 0.978148 0.207912
-1.485714 0.951057 0.309017
-1.485714 0.913545 0.406737
-1.485714 0.866025 0.500000
-1.485714 0.809017 0.587785
-1.485714 0.743145 0.669131
-1.485714 0.669131 0.743145
-1.485714 0.587785 0.809017
-1.485714 0.500000 0.866025
-1.485714 0.406737 0.913545
-1.485714 0.309017 0.951057
-1.485714 0.207912 0.978148
-1.485714 0.104528 0.994522
-1.485714 0.000000 1.000000
-1.485714 -0.104528 0.994522
-1.485714 -0.207912 0.978148
-1.485714 -0.309017 0.951057
-1.485714 -0.406737 0.913545
-1.485714 -0.500000 0.866025
-1.485714 -0.587785 0.809017
-1.485714 -0.669131 0.743145
-1.485714 -0.743145 0.669131
-1.485714 -0.809017 0.587785
-1.485714 -0.866025 0.500000
-1.485714 -0.913545 0.406737
-1.485714 -0.951057 0.309017
-1.485714 -0.978148 0.207912
-1.485714 -0.994522 0.104528
-1.257143 -1.000000 -0.000000
-1.257143 -0.994522 -0.104528
-1.257143 -0.978148 -0.207912
-1.257143 -0.951057 -0.309017
-1.257143 -0.913545 -0.406737
-1.257143 -0.866025 -0.500000
-1.257143 -0.809017 -0.587785
-1.257143 -0.743145 -0.669131
-1.257143 -0.669131 -0.743145
-1.257143 -0.587785 -0.809017
-1.257143 -0.500000 -0.866025
-1.257143 -0.406737 -0.913545
-1.257143 -0.309017 -0.951057
-1.257143 -0.207912 -0.978148
-1.257143 -0.104528 -0.994522
-1.257143 0.000000 -1.000000
-1.257143 0.104528 -0.994522
-1.257143 0.207912 -0.978148
-1.257143 0.309017 -0.951057
-1.257143 0.406737 -0.913545
-1.257143 0.500000 -0.866025
-1.257143 0.587785 -0.809017
-1.257143 0.669131 -0.743145
-1.257143 0.743145 -0.669131
-1.257143 0.809017 -0.587785
-1.257143 0.866025 -0.500000
-1.257143 0.913545 -0.406737
-1.257143 0.951057 -0.309017
-1.257143 0.978148 -0.207912
-1.257143 0.994522 -0.104528
-1.257143 1.000000 0.000000
-1.257143 0.994522 0.104528
-1.257143 0.978148 0.207912
-1.257143 0.951057 0.309017
-1.257143 0.913545 0.406737
-1.257143 0.866025 0.500000
-1.257143 0.809017 0.587785
-1.257143 0.743145 0.669131
-1.257143 0.669131 0.743145
-1.257143 0.587785 0.809017
-1.257143 0.500000 0.866025
-1.257143 0.406737 0.913545
-1.257143 0.309017 0.951057
-1.257143 0.207912 0.978148
-1.257143 0.104528 0.994522
-1.257143 0.000000 1.000000
-1.257143 -0.104528 0.994522
-1.257143 -0.207912 0.978148
-1.257143 -0.309017 0.951057
-1.257143 -0.406737 0.913545
-1.257143 -0.500000 0.866025
-1.257143 -0.587785 0.809017
-1.257143 -0.669131 0.743145
-1.257143 -0.743145 0.669131
-1.257143 -0.809017 0.587785
-1.257143 -0.866025 0.500000
-1.257143 -0.913545 0.406737
-1.257143 -0.951057 0.309017
-1.257143 -0.978148 0.207912
-1.257143 -0.994522 0.104528
-1.028571 -1.000000 -0.000000
-1.028571 -0.994522 -0.104528
-1.028571 -0.978148 -0.207912
-1.028571 -0.951057 -0.309017
-1.028571 -0.913545 -0.406737
-1.028571 -0.866025 -0.500000
-1.028571 -0.809017 -0.587785
-1.028571 -0.743145 -0.669131
-1.028571 -0.669131 -0.743145
-1.028571 -0.587785 -0.809017
-1.028571 -0.500000 -0.866025
-1.028571 -0.406737 -0.913545
-1.028571 -0.309017 -0.951057
-1.028571 -0.207912 -0.978148
-1.028571 -0.104528 -0.994522
-1.028571 0.000000 -1.000000
-1.028571 0.104528 -0.994522
-1.028571 0.207912 -0.978148
-1.028571 0.309017 -0.951057
-1.028571 0.406737 -0.913545
-1.028571 0.500000 -0.866025
-1.028571 0.587785 -0.809017
-1.028571 0.669131 -0.743145
-1.028571 0.743145 -0.669131
-1.028571 0.809017 -0.587785
-1.028571 0.866025 -0.500000
-1.028571 0.913545 -0.406737
-1.028571 0.951057 -0.309017
-1.028571 0.978148 -0.207912
-1.028571 0.994522 -0.104528
-1.028571 1.000000 0.000000
-1.028571 0.994522 0.104528
-1.028571 0.978148 0.207912
-1.028571 0.951057 0.309017
-1.028571 0.913545 0.406737
-1.028571 0.866025 0.500000
-1.028571 0.809017 0.587785
-1.028571 0.743145 0.669131
-1.028571 0.669131 0.743145
-1.028571 0.587785 0.809017
-1.028571 0.500000 0.866025
-1.028571 0.406737 0.913545
-1.028571 0.309017 0.951057
-1.028571 0.207912 0.978148
-1.028571 0.104528 0.994522
-1.028571 0.000000 1.000000
-1.028571 -0.104528 0.994522
-1.028571 -0.207912 0.978148
-1.028571 -0.309017 0.951057
-1.028571 -0.406737 0.913545
-1.028571 -0.500000 0.866025
-1.028571 -0.587785 0.809017
-1.028571 -0.669131 0.743145
-1.028571 -0.743145 0.669131
-1.028571 -0.809017 0.587785
-1.028571 -0.866025 0.500000
-1.028571 -0.913545 0.406737
-1.028571 -0.951057 0.309017
-1.028571 -0.978148 0.207912
-1.028571 -0.994522 0.104528
-0.800000 -1.000000 -0.000000
-0.800000 -0.994522 -0.104528
-0.800000 -0.978148 -0.207912
-0.800000 -0.951057 -0.309017
-0.800000 -0.913545 -0.406737
-0.800000 -0.866025 -0.500000
-0.800000 -0.809017 -0.587785
-0.800000 -0.743145 -0.669131
-0.800000 -0.669131 -0.743145
-0.800000 -0.587785 -0.809017
-0.800000 -0.500000 -0.866025
-0.800000 -0.406737 -0.913545
-0.800000 -0.309017 -0.951057
-0.800000 -0.207912 -0.978148
-0.800000 -0.104528 -0.994522
-0.800000 0.000000 -1.000000
-0.800000 0.104528 -0.994522
-0.800000 0.207912 -0.978148
-0.800000 0.309017 -0.951057
-0.800000 0.406737 -0.913545
-0.800000 0.500000 -0.866025
-0.800000 0.587785 -0.809017
-0.800000 0.669131 -0.743145
-0.800000 0.743145 -0.669131
-0.800000 0.809017 -0.587785
-0.800000 0.866025 -0.500000
-0.800000 0.913545 -0.406737
-0.800000 0.951057 -0.309017
-0.800000 0.978148 -0.207912
-0.800000 0.994522 -0.104528
-0.800000 1.000000 0.000000
-0.800000 0.994522 0.104528
-0.800000 0.978148 0.207912
-0.800000 0.951057 0.309017
-0.800000 0.913545 0.406737
-0.800000 0.866025 0.500000
-0.800000 0.809017 0.587785
-0.800000 0.743145 0.669131
-0.800000 0.669131 0.743145
-0.800000 0.587785 0.809017
-0.800000 0.500000 0.866025
-0.800000 0.406737 0.913545
-0.800000 0.309017 0.951057
-0.800000 0.207912 0.978148
-0.800000 0.104528 0.994522
-0.800000 0.000000 1.000000
-0.800000 -0.104528 0.994522
-0.800000 -0.207912 0.978148
-0.800000 -0.309017 0.951057
-0.800000 -0.406737 0.913545
-0.800000 -0.500000 0.866025
-0.800000 -0.587785 0.809017
-0.800000 -0.669131 0.743145
-0.800000 -0.743145 0.669131
-0.800000 -0.809017 0.587785
-0.800000 -0.866025 0.500000
-0.800000 -0.913545 0.406737
-0.800000 -0.951057 0.309017
-0.800000 -0.978148 0.207912
-0.800000 -0.994522 0.104528
-0.571429 -1.000000 -0.000000
-0.571429 -0.994522 -0.104528
-0.571429 -0.978148 -0.207912
-0.571429 -0.951057 -0.309017
-0.571429 -0.913545 -0.406737
-0.571429 -0.866025 -0.500000
-0.571429 -0.809017 -0.587785
-0.571429 -0.743145 -0.669131
-0.571429 -0.669131 -0.743145
-0.571429 -0.587785 -0.809017
-0.571429 -0.500000 -0.866025
-0.571429 -0.406737 -0.913545
-0.571429 -0.309017 -0.951057
-0.571429 -0.207912 -0.978148
-0.571429 -0.104528 -0.994522
-0.571429 0.000000 -1.000000
-0.571429 0.104528 -0.994522
-0.571429 0.207912 -0.978148
-0.571429 0.309017 -0.951057
-0.571429 0.406737 -0.913545
-0.571429 0.500000 -0.866025
-0.571429 0.587785 -0.809017
-0.571429 0.669131 -0.743145
-0.571429 0.743145 -0.669131
-0.571429 0.809017 -0.587785
-0.571429 0.866025 -0.500000
-0.571429 0.913545 -0.406737
-0.571429 0.951057 -0.309017
-0.571429 0.978148 -0.207912
-0.571429 0.994522 -0.104528
-0.571429 1.000000 0.000000
-0.571429 0.994522 0.104528
-0.571429 0.978148 0.207912
-0.571429 0.951057 0.309017
-0.571429 0.913545 0.406737
-0.571429 0.866025 0.500000
-0.571429 0.809017 0.587785
-0.571429 0.743145 0.669131
-0.571429 0.669131 0.743145
-0.571429 0.587785 0.809017
-0.571429 0.500000 0.866025
-0.571429 0.406737 0.913545
-0.571429 0.309017 0.951057
-0.571429 0.207912 0.978148
-0.571429 0.104528 0.994522
-0.571429 0.000000 1.000000
-0.571429 -0.104528 0.994522
-0.571429 -0.207912 0.978148
-0.571429 -0.309017 0.951057
-0.571429 -0.406737 0.913545
-0.571429 -0.500000 0.866025
-0.571429 -0.587785 0.809017
-0.571429 -0.669131 0.743145
-0.571429 -0.743145 0.669131
-0.571429 -0.809017 0.587785
-0.571429 -0.866025 0.500000
-0.571429 -0.913545 0.406737
-0.571429 -0.951057 0.309017
-0.571429 -0.978148 0.207912
-0.571429 -0.994522 0.104528
-0.342857 -1.000000 -0.000000
-0.342857 -0.994522 -0.104528
-0.342857 -0.978148 -0.207912
-0.342857 -0.951057 -0.309017
-0.342857 -0.913545 -0.406737
-0.342857 -0.866025 -0.500000
-0.342857 -0.809017 -0.587785
-0.342857 -0.743145 -0.669131
-0.342857 -0.669131 -0.743145
-0.342857 -0.587785 -0.809017
-0.342857 -0.500000 -0.866025
-0.342857 -0.406737 -0.913545
-0.342857 -0.309017 -0.951057
-0.342857 -0.207912 -0.978148
-0.342857 -0.104528 -0.994522
-0.342857 0.000000 -1.000000
-0.342857 0.104528 -0.994522
-0.342857 0.207912 -0.978148
-0.342857 0.309017 -0.951057
-0.342857 0.406737 -0.913545
-0.342857 0.500000 -0.866025
-0.342857 0.587785 -0.809017
-0.342857 0.669131 -0.743145
-0.342857 0.743145 -0.669131
-0.342857 0.809017 -0.587785
-0.342857 0.866025 -0.500000
-0.342857 0.913545 -0.406737
-0.342857 0.836930 -0.271935
-0.342857 0.860770 -0.182962
-0.342857 0.875179 -0.091985
-0.342857 0.880000 0.000000
-0.342857 0.875179 0.091985
-0.342857 0.860770 0.182962
-0.342857 0.836930 0.271935
-0.342857 0.913545 0.406737
-0.342857 0.866025 0.500000
-0.342857 0.809017 0.587785
-0.342857 0.743145 0.669131
-0.342857 0.669131 0.743145
-0.342857 0.587785 0.809017
-0.342857 0.500000 0.866025
-0.342857 0.406737 0.913545
-0.342857 0.309017 0.951057
-0.342857 0.207912 0.978148
-0.342857 0.104528 0.994522
-0.342857 0.000000 1.000000
-0.342857 -0.104528 0.994522
-0.342857 -0.207912 0.978148
-0.342857 -0.309017 0.951057
-0.342857 -0.406737 0.913545
-0.342857 -0.500000 0.866025
-0.342857 -0.587785 0.809017
-0.342857 -0.669131 0.743145
-0.342857 -0.743145 0.669131
-0.342857 -0.809017 0.587785
-0.342857 -0.866025 0.500000
-0.342857 -0.913545 0.406737
-0.342857 -0.951057 0.309017
-0.342857 -0.978148 0.207912
-0.342857 -0.994522 0.104528
-0.114286 -1.000000 -0.000000
-0.114286 -0.994522 -0.104528
-0.114286 -0.978148 -0.207912
-0.114286 -0.951057 -0.309017
-0.114286 -0.913545 -0.406737
-0.114286 -0.866025 -0.500000
-0.114286 -0.809017 -0.587785
-0.114286 -0.743145 -0.669131
-0.114286 -0.669131 -0.743145
-0.114286 -0.587785 -0.809017
-0.114286 -0.500000 -0.866025
-0.114286 -0.406737 -0.913545
-0.114286 -0.309017 -0.951057
-0.114286 -0.207912 -0.978148
-0.114286 -0.104528 -0.994522
-0.114286 0.000000 -1.000000
-0.114286 0.104528 -0.994522
-0.114286 0.207912 -0.978148
-0.114286 0.309017 -0.951057
-0.114286 0.406737 -0.913545
-0.114286 0.500000 -0.866025
-0.114286 0.587785 -0.809017
-0.114286 0.669131 -0.743145
-0.114286 0.743145 -0.669131
-0.114286 0.809017 -0.587785
-0.114286 0.866025 -0.500000
-0.114286 0.913545 -0.406737
-0.114286 0.836930 -0.271935
-0.114286 0.860770 -0.182962
-0.114286 0.875179 -0.091985
-0.114286 0.880000 0.000000
-0.114286 0.875179 0.091985
-0.114286 0.860770 0.182962
-0.114286 0.836930 0.271935
-0.114286 0.913545 0.406737
-0.114286 0.866025 0.500000
-0.114286 0.809017 0.587785
-0.114286 0.743145 0.669131
-0.114286 0.669131 0.743145
-0.114286 0.587785 0.809017
-0.114286 0.500000 0.866025
-0.114286 0.406737 0.913545
-0.114286 0.309017 0.951057
-0.114286 0.207912 0.978148
-0.114286 0.104528 0.994522
-0.114286 0.000000 1.000000
-0.114286 -0.104528 0.994522
-0.114286 -0.207912 0.978148
-0.114286 -0.309017 0.951057
-0.114286 -0.406737 0.913545
-0.114286 -0.500000 0.866025
-0.114286 -0.587785 0.809017
-0.114286 -0.669131 0.743145
-0.114286 -0.743145 0.669131
-0.114286 -0.809017 0.587785
-0.114286 -0.866025 0.500000
-0.114286 -0.913545 0.406737
-0.114286 -0.951057 0.309017
-0.114286 -0.978148 0.207912
-0.114286 -0.994522 0.104528
0.114286 -1.000000 -0.000000
0.114286 -0.994522 -0.104528
0.114286 -0.978148 -0.207912
0.114286 -0.951057 -0.309017
0.114286 -0.913545 -0.406737
0.114286 -0.866025 -0.500000
0.114286 -0.809017 -0.587785
0.114286 -0.743145 -0.669131
0.114286 -0.669131 -0.743145
0.114286 -0.587785 -0.809017
0.114286 -0.500000 -0.866025
0.114286 -0.406737 -0.913545
0.114286 -0.309017 -0.951057
0.114286 -0.207912 -0.978148
0.114286 -0.104528 -0.994522
0.114286 0.000000 -1.000000
0.114286 0.104528 -0.994522
0.114286 0.207912 -0.978148
0.114286 0.309017 -0.951057
0.114286 0.406737 -0.913545
0.114286 0.500000 -0.866025
0.114286 0.587785 -0.809017
0.114286 0.669131 -0.743145
0.114286 0.743145 -0.669131
0.114286 0.809017 -0.587785
0.114286 0.866025 -0.500000
0.114286 0.913545 -0.406737
0.114286 0.836930 -0.271935
0.114286 0.860770 -0.182962
0.114286 0.875179 -0.091985
0.114286 0.880000 0.000000
0.114286 0.875179 0.091985
0.114286 0.860770 0.182962
0.114286 0.836930 0.271935
0.114286 0.913545 0.406737
0.114286 0.866025 0.500000
0.114286 0.809017 0.587785
0.114286 0.743145 0.669131
0.114286 0.669131 0.743145
0.114286 0.587785 0.809017
0.114286 0.500000 0.866025
0.114286 0.406737 0.913545
0.114286 0.309017 0.951057
0.114286 0.207912 0.978148
0.114286 0.104528 0.994522
0.114286 0.000000 1.000000
0.114286 -0.104528 0.994522
0.114286 -0.207912 0.978148
0.114286 -0.309017 0.951057
0.114286 -0.406737 0.913545
0.114286 -0.500000 0.866025
0.114286 -0.587785 0.809017
0.114286 -0.669131 0.743145
0.114286 -0.743145 0.669131
0.114286 -0.809017 0.587785
0.114286 -0.866025 0.500000
0.114286 -0.913545 0.406737
0.114286 -0.951057 0.309017
0.114286 -0.978148 0.207912
0.114286 -0.994522 0.104528
0.342857 -1.000000 -0.000000
0.342857 -0.994522 -0.104528
0.342857 -0.978148 -0.207912
0.342857 -0.951057 -0.309017
0.342857 -0.913545 -0.406737
0.342857 -0.866025 -0.500000
0.342857 -0.809017 -0.587785
0.342857 -0.743145 -0.669131
0.342857 -0.669131 -0.743145
0.342857 -0.587785 -0.809017
0.342857 -0.500000 -0.866025
0.342857 -0.406737 -0.913545
0.342857 -0.309017 -0.951057
0.342857 -0.207912 -0.978148
0.342857 -0.104528 -0.994522
0.342857 0.000000 -1.000000
0.342857 0.104528 -0.994522
0.342857 0.207912 -0.978148
0.342857 0.309017 -0.951057
0.342857 0.406737 -0.913545
0.342857 0.500000 -0.866025
0.342857 0.587785 -0.809017
0.342857 0.669131 -0.743145
0.342857 0.743145 -0.669131
0.342857 0.809017 -0.587785
0.342857 0.866025 -0.500000
0.342857 0.913545 -0.406737
0.342857 0.836930 -0.271935
0.342857 0.860770 -0.182962
0.342857 0.875179 -0.091985
0.342857 0.880000 0.000000
0.342857 0.875179 0.091985
0.342857 0.860770 0.182962
0.342857 0.836930 0.271935
0.342857 0.913545 0.406737
0.342857 0.866025 0.500000
0.342857 0.809017 0.587785
0.342857 0.743145 0.669131
0.342857 0.669131 0.743145
0.342857 0.587785 0.809017
0.342857 0.500000 0.866025
0.342857 0.406737 0.913545
0.342857 0.309017 0.951057
0.342857 0.207912 0.978148
0.342857 0.104528 0.994522
0.342857 0.000000 1.000000
0.342857 -0.104528 0.994522
0.342857 -0.207912 0.978148
0.342857 -0.309017 0.951057
0.342857 -0.406737 0.913545
0.342857 -0.500000 0.866025
0.342857 -0.587785 0.809017
0.342857 -0.669131 0.743145
0.342857 -0.743145 0.669131
0.342857 -0.809017 0.587785
0.342857 -0.866025 0.500000
0.342857 -0.913545 0.406737
0.342857 -0.951057 0.309017
0.342857 -0.978148 0.207912
0.342857 -0.994522 0.104528
0.571429 -1.000000 -0.000000
0.571429 -0.994522 -0.104528
0.571429 -0.978148 -0.207912
0.571429 -0.951057 -0.309017
0.571429 -0.913545 -0.406737
0.571429 -0.866025 -0.500000
0.571429 -0.809017 -0.587785
0.571429 -0.743145 -0.669131
0.571429 -0.669131 -0.743145
0.571429 -0.587785 -0.809017
0.571429 -0.500000 -0.866025
0.571429 -0.406737 -0.913545
0.571429 -0.309017 -0.951057
0.571429 -0.207912 -0.978148
0.571429 -0.104528 -0.994522
0.571429 0.000000 -1.000000
0.571429 0.104528 -0.994522
0.571429 0.207912 -0.978148
0.571429 0.309017 -0.951057
0.571429 0.406737 -0.913545
0.571429 0.500000 -0.866025
0.571429 0.587785 -0.809017
0.571429 0.669131 -0.743145
0.571429 0.743145 -0.669131
0.571429 0.809017 -0.587785
0.571429 0.866025 -0.500000
0.571429 0.913545 -0.406737
0.571429 0.951057 -0.309017
0.571429 0.978148 -0.207912
0.571429 0.994522 -0.104528
0.571429 1.000000 0.000000
0.571429 0.994522 0.104528
0.571429 0.978148 0.207912
0.571429 0.951057 0.309017
0.571429 0.913545 0.406737
0.571429 0.866025 0.500000
0.571429 0.809017 0.587785
0.571429 0.743145 0.669131
0.571429 0.669131 0.743145
0.571429 0.587785 0.809017
0.571429 0.500000 0.866025
0.571429 0.406737 0.913545
0.571429 0.309017 0.951057
0.571429 0.207912 0.978148
0.571429 0.104528 0.994522
0.571429 0.000000 1.000000
0.571429 -0.104528 0.994522
0.571429 -0.207912 0.978148
0.571429 -0.309017 0.951057
0.571429 -0.406737 0.913545
0.571429 -0.500000 0.866025
0.571429 -0.587785 0.809017
0.571429 -0.669131 0.743145
0.571429 -0.743145 0.669131
0.571429 -0.809017 0.587785
0.571429 -0.866025 0.500000
0.571429 -0.913545 0.406737
0.571429 -0.951057 0.309017
0.571429 -0.978148 0.207912
0.571429 -0.994522 0.104528
0.800000 -1.000000 -0.000000
0.800000 -0.994522 -0.104528
0.800000 -0.978148 -0.207912
0.800000 -0.951057 -0.309017
0.800000 -0.913545 -0.406737
0.800000 -0.866025 -0.500000
0.800000 -0.809017 -0.587785
0.800000 -0.743145 -0.669131
0.800000 -0.669131 -0.743145
0.800000 -0.587785 -0.809017
0.800000 -0.500000 -0.866025
0.800000 -0.406737 -0.913545
0.800000 -0.309017 -0.951057
0.800000 -0.207912 -0.978148
0.800000 -0.104528 -0.994522
0.800000 0.000000 -1.000000
0.800000 0.104528 -0.994522
0.800000 0.207912 -0.978148
0.800000 0.309017 -0.951057
0.800000 0.406737 -0.913545
0.800000 0.500000 -0.866025
0.800000 0.587785 -0.809017
0.800000 0.669131 -0.743145
0.800000 0.743145 -0.669131
0.800000 0.809017 -0.587785
0.800000 0.866025 -0.500000
0.800000 0.913545 -0.406737
0.800000 0.951057 -0.309017
0.800000 0.978148 -0.207912
0.800000 0.994522 -0.104528
0.800000 1.000000 0.000000
0.800000 0.994522 0.104528
0.800000 0.978148 0.207912
0.800000 0.951057 0.309017
0.800000 0.913545 0.406737
0.800000 0.866025 0.500000
0.800000 0.809017 0.587785
0.800000 0.743145 0.669131
0.800000 0.669131 0.743145
0.800000 0.587785 0.809017
0.800000 0.500000 0.866025
0.800000 0.406737 0.913545
0.800000 0.309017 0.951057
0.800000 0.207912 0.978148
0.800000 0.104528 0.994522
0.800000 0.000000 1.000000
0.800000 -0.104528 0.994522
0.800000 -0.207912 0.978148
0.800000 -0.309017 0.951057
0.800000 -0.406737 0.913545
0.800000 -0.500000 0.866025
0.800000 -0.587785 0.809017
0.800000 -0.669131 0.743145
0.800000 -0.743145 0.669131
0.800000 -0.809017 0.587785
0.800000 -0.866025 0.500000
0.800000 -0.913545 0.406737
0.800000 -0.951057 0.309017
0.800000 -0.978148 0.207912
0.800000 -0.994522 0.104528
1.028571 -1.000000 -0.000000
1.028571 -0.994522 -0.104528
1.028571 -0.978148 -0.207912
1.028571 -0.951057 -0.309017
1.028571 -0.913545 -0.406737
1.028571 -0.866025 -0.500000
1.028571 -0.809017 -0.587785
1.028571 -0.743145 -0.669131
1.028571 -0.669131 -0.743145
1.028571 -0.587785 -0.809017
1.028571 -0.500000 -0.866025
1.028571 -0.406737 -0.913545
1.028571 -0.309017 -0.951057
1.028571 -0.207912 -0.978148
1.028571 -0.104528 -0.994522
1.028571 0.000000 -1.000000
1.028571 0.104528 -0.994522
1.028571 0.207912 -0.978148
1.028571 0.309017 -0.951057
1.028571 0.406737 -0.913545
1.028571 0.500000 -0.866025
1.028571 0.587785 -0.809017
1.028571 0.669131 -0.743145
1.028571 0.743145 -0.669131
1.028571 0.809017 -0.587785
1.028571 0.866025 -0.500000
1.028571 0.913545 -0.406737
1.028571 0.951057 -0.309017
1.028571 0.978148 -0.207912
1.028571 0.994522 -0.104528
1.028571 1.000000 0.000000
1.028571 0.994522 0.104528
1.028571 0.978148 0.207912
1.028571 0.951057 0.309017
1.028571 0.913545 0.406737
1.028571 0.866025 0.500000
1.028571 0.809017 0.587785
1.028571 0.743145 0.669131
1.028571 0.669131 0.743145
1.028571 0.587785 0.809017
1.028571 0.500000 0.866025
1.028571 0.406737 0.913545
1.028571 0.309017 0.951057
1.028571 0.207912 0.978148
1.028571 0.104528 0.994522
1.028571 0.000000 1.000000
1.028571 -0.104528 0.994522
1.028571 -0.207912 0.978148
1.028571 -0.309017 0.951057
1.028571 -0.406737 0.913545
1.028571 -0.500000 0.866025
1.028571 -0.587785 0.809017
1.028571 -0.669131 0.743145
1.028571 -0.743145 0.669131
1.028571 -0.809017 0.587785
1.028571 -0.866025 0.500000
1.028571 -0.913545 0.406737
1.028571 -0.951057 0.309017
1.028571 -0.978148 0.207912
1.028571 -0.994522 0.104528
1.257143 -1.000000 -0.000000
1.257143 -0.994522 -0.104528
1.257143 -0.978148 -0.207912
1.257143 -0.951057 -0.309017
1.257143 -0.913545 -0.406737
1.257143 -0.866025 -0.500000
1.257143 -0.809017 -0.587785
1.257143 -0.743145 -0.669131
1.257143 -0.669131 -0.743145
1.257143 -0.587785 -0.809017
1.257143 -0.500000 -0.866025
1.257143 -0.406737 -0.913545
1.257143 -0.309017 -0.951057
1.257143 -0.207912 -0.978148
1.257143 -0.104528 -0.994522
1.257143 0.000000 -1.000000
1.257143 0.104528 -0.994522
1.257143 0.207912 -0.978148
1.257143 0.309017 -0.951057
1.257143 0.406737 -0.913545
1.257143 0.500000 -0.866025
1.257143 0.587785 -0.809017
1.257143 0.669131 -0.743145
1.257143 0.743145 -0.669131
1.257143 0.809017 -0.587785
1.257143 0.866025 -0.500000
1.257143 0.913545 -0.406737
1.257143 0.951057 -0.309017
1.257143 0.978148 -0.207912
1.257143 0.994522 -0.104528
1.257143 1.000000 0.000000
1.257143 0.994522 0.104528
1.257143 0.978148 0.207912
1.257143 0.951057 0.309017
1.257143 0.913545 0.406737
1.257143 0.866025 0.500000
1.257143 0.809017 0.587785
1.257143 0.743145 0.669131
1.257143 0.669131 0.743145
1.257143 0.587785 0.809017
1.257143 0.500000 0.866025
1.257143 0.406737 0.913545
1.257143 0.309017 0.951057
1.257143 0.207912 0.978148
1.257143 0.104528 0.994522
1.257143 0.000000 1.000000
1.257143 -0.104528 0.994522
1.257143 -0.207912 0.978148
1.257143 -0.309017 0.951057
1.257143 -0.406737 0.913545
1.257143 -0.500000 0.866025
1.257143 -0.587785 0.809017
1.257143 -0.669131 0.743145
1.257143 -0.743145 0.669131
1.257143 -0.809017 0.587785
1.257143 -0.866025 0.500000
1.257143 -0.913545 0.406737
1.257143 -0.951057 0.309017
1.257143 -0.978148 0.207912
1.257143 -0.994522 0.104528
1.485714 -1.000000 -0.000000
1.485714 -0.994522 -0.104528
1.485714 -0.978148 -0.207912
1.485714 -0.951057 -0.309017
1.485714 -0.913545 -0.406737
1.485714 -0.866025 -0.500000
1.485714 -0.809017 -0.587785
1.485714 -0.743145 -0.669131
1.485714 -0.669131 -0.743145
1.485714 -0.587785 -0.809017
1.485714 -0.500000 -0.866025
1.485714 -0.406737 -0.913545
1.485714 -0.309017 -0.951057
1.485714 -0.207912 -0.978148
1.485714 -0.104528 -0.994522
1.485714 0.000000 -1.000000
1.485714 0.104528 -0.994522
1.485714 0.207912 -0.978148
1.485714 0.309017 -0.951057
1.485714 0.406737 -0.913545
1.485714 0.500000 -0.866025
1.485714 0.587785 -0.809017
1.485714 0.669131 -0.743145
1.485714 0.743145 -0.669131
1.485714 0.809017 -0.587785
1.485714 0.866025 -0.500000
1.485714 0.913545 -0.406737
1.485714 0.951057 -0.309017
1.485714 0.978148 -0.207912
1.485714 0.994522 -0.104528
1.485714 1.000000 0.000000
1.485714 0.994522 0.104528
1.485714 0.978148 0.207912
1.485714 0.951057 0.309017
1.485714 0.913545 0.406737
1.485714 0.866025 0.500000
1.485714 0.809017 0.587785
1.485714 0.743145 0.669131
1.485714 0.669131 0.743145
1.485714 0.587785 0.809017
1.485714 0.500000 0.866025
1.485714 0.406737 0.913545
1.485714 0.309017 0.951057
1.485714 0.207912 0.978148
1.485714 0.104528 0.994522
1.485714 0.000000 1.000000
1.485714 -0.104528 0.994522
1.485714 -0.207912 0.978148
1.485714 -0.309017 0.951057
1.485714 -0.406737 0.913545
1.485714 -0.500000 0.866025
1.485714 -0.587785 0.809017
1.485714 -0.669131 0.743145
1.485714 -0.743145 0.669131
1.485714 -0.809017 0.587785
1.485714 -0.866025 0.500000
1.485714 -0.913545 0.406737
1.485714 -0.951057 0.309017
1.485714 -0.978148 0.207912
1.485714 -0.994522 0.104528
1.714286 -1.000000 -0.000000
1.714286 -0.994522 -0.104528
1.714286 -0.978148 -0.207912
1.714286 -0.951057 -0.309017
1.714286 -0.913545 -0.406737
1.714286 -0.866025 -0.500000
1.714286 -0.809017 -0.587785
1.714286 -0.743145 -0.669131
1.714286 -0.669131 -0.743145
1.714286 -0.587785 -0.809017
1.714286 -0.500000 -0.866025
1.714286 -0.406737 -0.913545
1.714286 -0.309017 -0.951057
1.714286 -0.207912 -0.978148
1.714286 -0.104528 -0.994522
1.714286 0.000000 -1.000000
1.714286 0.104528 -0.994522
1.714286 0.207912 -0.978148
1.714286 0.309017 -0.951057
1.714286 0.406737 -0.913545
1.714286 0.500000 -0.866025
1.714286 0.587785 -0.809017
1.714286 0.669131 -0.743145
1.714286 0.743145 -0.669131
1.714286 0.809017 -0.587785
1.714286 0.866025 -0.500000
1.714286 0.913545 -0.406737
1.714286 0.951057 -0.309017
1.714286 0.978148 -0.207912
1.714286 0.994522 -0.104528
1.714286 1.000000 0.000000
1.714286 0.994522 0.104528
1.714286 0.978148 0.207912
1.714286 0.951057 0.309017
1.714286 0.913545 0.406737
1.714286 0.866025 0.500000
1.714286 0.809017 0.587785
1.714286 0.743145 0.669131
1.714286 0.669131 0.743145
1.714286 0.587785 0.809017
1.714286 0.500000 0.866025
1.714286 0.406737 0.913545
1.714286 0.309017 0.951057
1.714286 0.207912 0.978148
1.714286 0.104528 0.994522
1.714286 0.000000 1.000000
1.714286 -0.104528 0.994522
1.714286 -0.207912 0.978148
1.714286 -0.309017 0.951057
1.714286 -0.406737 0.913545
1.714286 -0.500000 0.866025
1.714286 -0.587785 0.809017
1.714286 -0.669131 0.743145
1.714286 -0.743145 0.669131
1.714286 -0.809017 0.587785
1.714286 -0.866025 0.500000
1.714286 -0.913545 0.406737
1.714286 -0.951057 0.309017
1.714286 -0.978148 0.207912
1.714286 -0.994522 0.104528
1.942857 -1.000000 -0.000000
1.942857 -0.994522 -0.104528
1.942857 -0.978148 -0.207912
1.942857 -0.951057 -0.309017
1.942857 -0.913545 -0.406737
1.942857 -0.866025 -0.500000
1.942857 -0.809017 -0.587785
1.942857 -0.743145 -0.669131
1.942857 -0.669131 -0.743145
1.942857 -0.587785 -0.809017
1.942857 -0.500000 -0.866025
1.942857 -0.406737 -0.913545
1.942857 -0.309017 -0.951057
1.942857 -0.207912 -0.978148
1.942857 -0.104528 -0.994522
1.942857 0.000000 -1.000000
1.942857 0.104528 -0.994522
1.942857 0.207912 -0.978148
1.942857 0.309017 -0.951057
1.942857 0.406737 -0.913545
1.942857 0.500000 -0.866025
1.942857 0.587785 -0.809017
1.942857 0.669131 -0.743145
1.942857 0.743145 -0.669131
1.942857 0.809017 -0.587785
1.942857 0.866025 -0.500000
1.942857 0.913545 -0.406737
1.942857 0.951057 -0.309017
1.942857 0.978148 -0.207912
1.942857 0.994522 -0.104528
1.942857 1.000000 0.000000
1.942857 0.994522 0.104528
1.942857 0.978148 0.207912
1.942857 0.951057 0.309017
1.942857 0.913545 0.406737
1.942857 0.866025 0.500000
1.942857 0.809017 0.587785
1.942857 0.743145 0.669131
1.942857 0.669131 0.743145
1.942857 0.587785 0.809017
1.942857 0.500000 0.866025
1.942857 0.406737 0.913545
1.942857 0.309017 0.951057
1.942857 0.207912 0.978148
1.942857 0.104528 0.994522
1.942857 0.000000 1.000000
1.942857 -0.104528 0.994522
1.942857 -0.207912 0.978148
1.942857 -0.309017 0.951057
1.942857 -0.406737 0.913545
1.942857 -0.500000 0.866025
1.942857 -0.587785 0.809017
1.942857 -0.669131 0.743145
1.942857 -0.743145 0.669131
1.942857 -0.809017 0.587785
1.942857 -0.866025 0.500000
1.942857 -0.913545 0.406737
1.942857 -0.951057 0.309017
1.942857 -0.978148 0.207912
1.942857 -0.994522 0.104528
2.171429 -1.000000 -0.000000
2.171429 -0.994522 -0.104528
2.171429 -0.978148 -0.207912
2.171429 -0.951057 -0.309017
2.171429 -0.913545 -0.406737
2.171429 -0.866025 -0.500000
2.171429 -0.809017 -0.587785
2.171429 -0.743145 -0.669131
2.171429 -0.669131 -0.743145
2.171429 -0.587785 -0.809017
2.171429 -0.500000 -0.866025
2.171429 -0.406737 -0.913545
2.171429 -0.309017 -0.951057
2.171429 -0.207912 -0.978148
2.171429 -0.104528 -0.994522
2.171429 0.000000 -1.000000
2.171429 0.104528 -0.994522
2.171429 0.207912 -0.978148
2.171429 0.309017 -0.951057
2.171429 0.406737 -0.913545
2.171429 0.500000 -0.866025
2.171429 0.587785 -0.809017
2.171429 0.669131 -0.743145
2.171429 0.743145 -0.669131
2.171429 0.809017 -0.587785
2.171429 0.866025 -0.500000
2.171429 0.913545 -0.406737
2.171429 0.951057 -0.309017
2.171429 0.978148 -0.207912
2.171429 0.994522 -0.104528
2.171429 1.000000 0.000000
2.171429 0.994522 0.104528
2.171429 0.978148 0.207912
2.171429 0.951057 0.309017
2.171429 0.913545 0.406737
2.171429 0.866025 0.500000
2.171429 0.809017 0.587785
2.171429 0.743145 0.669131
2.171429 0.669131 0.743145
2.171429 0.587785 0.809017
2.171429 0.500000 0.866025
2.171429 0.406737 0.913545
2.171429 0.309017 0.951057
2.171429 0.207912 0.978148
2.171429 0.104528 0.994522
2.171429 0.000000 1.000000
2.171429 -0.104528 0.994522
2.171429 -0.207912 0.978148
2.171429 -0.309017 0.951057
2.171429 -0.406737 0.913545
2.171429 -0.500000 0.866025
2.171429 -0.587785 0.809017
2.171429 -0.669131 0.743145
2.171429 -0.743145 0.669131
2.171429 -0.809017 0.587785
2.171429 -0.866025 0.500000
2.171429 -0.913545 0.406737
2.171429 -0.951057 0.309017
2.171429 -0.978148 0.207912
2.171429 -0.994522 0.104528
2.400000 -1.000000 -0.000000
2.400000 -0.994522 -0.104528
2.400000 -0.978148 -0.207912
2.400000 -0.951057 -0.309017
2.400000 -0.913545 -0.406737
2.400000 -0.866025 -0.500000
2.400000 -0.809017 -0.587785
2.400000 -0.743145 -0.669131
2.400000 -0.669131 -0.743145
2.400000 -0.587785 -0.809017
2.400000 -0.500000 -0.866025
2.400000 -0.406737 -0.913545
2.400000 -0.309017 -0.951057
2.400000 -0.207912 -0.978148
2.400000 -0.104528 -0.994522
2.400000 0.000000 -1.000000
2.400000 0.104528 -0.994522
2.400000 0.207912 -0.978148
2.400000 0.309017 -0.951057
2.400000 0.406737 -0.913545
2.400000 0.500000 -0.866025
2.400000 0.587785 -0.809017
2.400000 0.669131 -0.743145
2.400000 0.743145 -0.669131
2.400000 0.809017 -0.587785
2.400000 0.866025 -0.500000
2.400000 0.913545 -0.406737
2.400000 0.951057 -0.309017
2.400000 0.978148 -0.207912
2.400000 0.994522 -0.104528
2.400000 1.000000 0.000000
2.400000 0.994522 0.104528
2.400000 0.978148 0.207912
2.400000 0.951057 0.309017
2.400000 0.913545 0.406737
2.400000 0.866025 0.500000
2.400000 0.809017 0.587785
2.400000 0.743145 0.669131
2.400000 0.669131 0.743145
2.400000 0.587785 0.809017
2.400000 0.500000 0.866025
2.400000 0.406737 0.913545
2.400000 0.309017 0.951057
2.400000 0.207912 0.978148
2.400000 0.104528 0.994522
2.400000 0.000000 1.000000
2.400000 -0.104528 0.994522
2.400000 -0.207912 0.978148
2.400000 -0.309017 0.951057
2.400000 -0.406737 0.913545
2.400000 -0.500000 0.866025
2.400000 -0.587785 0.809017
2.400000 -0.669131 0.743145
2.400000 -0.743145 0.669131
2.400000 -0.809017 0.587785
2.400000 -0.866025 0.500000
2.400000 -0.913545 0.406737
2.400000 -0.951057 0.309017
2.400000 -0.978148 0.207912
2.400000 -0.994522 0.104528
2.628571 -1.000000 -0.000000
2.628571 -0.994522 -0.104528
2.628571 -0.978148 -0.207912
2.628571 -0.951057 -0.309017
2.628571 -0.913545 -0.406737
2.628571 -0.866025 -0.500000
2.628571 -0.809017 -0.587785
2.628571 -0.743145 -0.669131
2.628571 -0.669131 -0.743145
2.628571 -0.587785 -0.809017
2.628571 -0.500000 -0.866025
2.628571 -0.406737 -0.913545
2.628571 -0.309017 -0.951057
2.628571 -0.207912 -0.978148
2.628571 -0.104528 -0.994522
2.628571 0.000000 -1.000000
2.628571 0.104528 -0.994522
2.628571 0.207912 -0.978148
2.628571 0.309017 -0.951057
2.628571 0.406737 -0.913545
2.628571 0.500000 -0.866025
2.628571 0.587785 -0.809017
2.628571 0.669131 -0.743145
2.628571 0.743145 -0.669131
2.628571 0.809017 -0.587785
2.628571 0.866025 -0.500000
2.628571 0.913545 -0.406737
2.628571 0.951057 -0.309017
2.628571 0.978148 -0.207912
2.628571 0.994522 -0.104528
2.628571 1.000000 0.000000
2.628571 0.994522 0.104528
2.628571 0.978148 0.207912
2.628571 0.951057 0.309017
2.628571 0.913545 0.406737
2.628571 0.866025 0.500000
2.628571 0.809017 0.587785
2.628571 0.743145 0.669131
2.628571 0.669131 0.743145
2.628571 0.587785 0.809017
2.628571 0.500000 0.866025
2.628571 0.406737 0.913545
2.628571 0.309017 0.951057
2.628571 0.207912 0.978148
2.628571 0.104528 0.994522
2.628571 0.000000 1.000000
2.628571 -0.104528 0.994522
2.628571 -0.207912 0.978148
2.628571 -0.309017 0.951057
2.628571 -0.406737 0.913545
2.628571 -0.500000 0.866025
2.628571 -0.587785 0.809017
2.628571 -0.669131 0.743145
2.628571 -0.743145 0.669131
2.628571 -0.809017 0.587785
2.628571 -0.866025 0.500000
2.628571 -0.913545 0.406737
2.628571 -0.951057 0.309017
2.628571 -0.978148 0.207912
2.628571 -0.994522 0.104528
2.857143 -1.000000 -0.000000
2.857143 -0.994522 -0.104528
2.857143 -0.978148 -0.207912
2.857143 -0.951057 -0.309017
2.857143 -0.913545 -0.406737
2.857143 -0.866025 -0.500000
2.857143 -0.809017 -0.587785
2.857143 -0.743145 -0.669131
2.857143 -0.669131 -0.743145
2.857143 -0.587785 -0.809017
2.857143 -0.500000 -0.866025
2.857143 -0.406737 -0.913545
2.857143 -0.309017 -0.951057
2.857143 -0.207912 -0.978148
2.857143 -0.104528 -0.994522
2.857143 0.000000 -1.000000
2.857143 0.104528 -0.994522
2.857143 0.207912 -0.978148
2.857143 0.309017 -0.951057
2.857143 0.406737 -0.913545
2.857143 0.500000 -0.866025
2.857143 0.587785 -0.809017
2.857143 0.669131 -0.743145
2.857143 0.743145 -0.669131
2.857143 0.809017 -0.587785
2.857143 0.866025 -0.500000
2.857143 0.913545 -0.406737
2.857143 0.951057 -0.309017
2.857143 0.978148 -0.207912
2.857143 0.994522 -0.104528
2.857143 1.000000 0.000000
2.857143 0.994522 0.104528
2.857143 0.978148 0.207912
2.857143 0.951057 0.309017
2.857143 0.913545 0.406737
2.857143 0.866025 0.500000
2.857143 0.809017 0.587785
2.857143 0.743145 0.669131
2.857143 0.669131 0.743145
2.857143 0.587785 0.809017
2.857143 0.500000 0.866025
2.857143 0.406737 0.913545
2.857143 0.309017 0.951057
2.857143 0.207912 0.978148
2.857143 0.104528 0.994522
2.857143 0.000000 1.000000
2.857143 -0.104528 0.994522
2.857143 -0.207912 0.978148
2.857143 -0.309017 0.951057
2.857143 -0.406737 0.913545
2.857143 -0.500000 0.866025
2.857143 -0.587785 0.809017
2.857143 -0.669131 0.743145
2.857143 -0.743145 0.669131
2.857143 -0.809017 0.587785
2.857143 -0.866025 0.500000
