x,y,z
-3.90604,-0.135737,0.96582
-3.90604,-0.034066,0.975526
-3.90604,0.068078,0.973562
-3.90604,0.169296,0.960125
-3.90604,0.268512,0.936414
-3.90604,0.365216,0.903941
-3.90604,0.459242,0.863708
-3.90604,0.55022,0.815734
-3.90604,0.637076,0.759238
-3.90604,0.767487,0.643998
-3.90604,0.812822,0.59055
-3.90604,0.872179,0.503553
-3.90604,0.952509,-0.346685
-3.90604,0.987342,-0.246172
-3.90604,1.008743,-0.14177
-3.90604,1.011714,0.070746
-3.825503,-1.00844,-0.141727
-3.825503,-1.011517,0.070732
-3.825503,-0.987033,-0.246095
-3.825503,-0.959322,0.311703
-3.825503,-0.905704,0.441742
-3.825503,-0.853416,0.533273
-3.825503,-0.790512,0.617616
-3.825503,-0.688316,-0.712772
-3.825503,-0.579568,0.797707
-3.825503,-0.489837,0.848422
-3.825503,-0.39678,0.891182
-3.825503,-0.300966,0.926278
-3.825503,-0.202571,0.953023
-3.825503,-0.101952,0.97001
-3.825503,0.0,0.975862
-3.825503,0.101952,0.97001
-3.825503,0.202571,0.953023
-3.825503,0.300966,0.926278
-3.825503,0.396779,0.891181
-3.825503,0.489834,0.848418
-3.825503,0.579559,0.797694
-3.825503,0.688316,-0.712772
-3.825503,0.806706,-0.586106
-3.825503,0.868695,-0.501542
-3.825503,0.922252,-0.410613
-3.825503,0.947331,0.3448
-3.825503,0.979438,0.244201
-3.825503,1.015102,-0.070983
-3.825503,1.001996,0.140821
-3.744966,-1.014843,-0.070965
-3.744966,-1.001927,0.140812
-3.744966,-0.979457,0.244206
-3.744966,-0.934535,0.377577
-3.744966,-0.889221,0.472807
-3.744966,-0.833355,0.562105
-3.744966,-0.767043,0.643626
-3.744966,-0.636743,0.758841
-3.744966,-0.549975,0.815371
-3.744966,-0.459061,0.863367
-3.744966,-0.365068,0.903575
-3.744966,-0.268385,0.935968
-3.744966,-0.169199,0.959577
-3.744966,-0.068034,0.972936
-3.744966,0.034044,0.974888
-3.744966,0.135656,0.965241
-3.744966,0.235586,0.944883
-3.744966,0.333131,0.915271
-3.744966,0.428041,0.877613
-3.744966,0.520054,0.83226
-3.744966,0.608353,0.778657
-3.744966,0.73765,-0.664183
-3.744966,0.828039,-0.558519
-3.744966,0.88738,-0.471828
-3.744966,0.905014,0.441405
-3.744966,0.964956,-0.313533
-3.744966,0.995372,-0.211573
-3.744966,1.015676,0.0
-3.66443,-0.995068,-0.211508
-3.66443,-1.015526,0.0
-3.66443,-0.964669,-0.31344
-3.66443,-0.937356,-0.378716
-3.66443,-0.921781,-0.410403
-3.66443,-0.84856,-0.530239
-3.66443,-0.784199,-0.612683
-3.66443,-0.713141,-0.688672
-3.66443,-0.60824,0.778512
-3.66443,-0.519969,0.832125
-3.66443,-0.427977,0.877483
-3.66443,-0.333074,0.915113
-3.66443,-0.235532,0.944667
-3.66443,-0.135616,0.964961
-3.66443,-0.034033,0.97457
-3.66443,0.068013,0.972627
-3.66443,0.169153,0.959317
-3.66443,0.268329,0.935773
-3.66443,0.365008,0.903427
-3.66443,0.458984,0.863224
-3.66443,0.549847,0.815182
-3.66443,0.636508,0.75856
-3.66443,0.766464,0.64314
-3.66443,0.81162,0.589677
-3.66443,0.870792,0.502752
-3.66443,0.951675,-0.346381
-3.66443,0.986402,-0.245938
-3.66443,1.007794,-0.141636
-3.66443,1.010835,0.070684
-3.583893,-1.007533,-0.1416
-3.583893,-1.010936,0.070692
-3.583893,-0.986103,-0.245863
-3.583893,-0.958851,0.31155
-3.583893,-0.905064,0.441429
-3.583893,-0.852668,0.532806
-3.583893,-0.789756,0.617025
-3.583893,-0.687938,-0.71238
-3.583893,-0.579202,0.797203
-3.583893,-0.489596,0.848006
-3.583893,-0.396596,0.890769
-3.583893,-0.300795,0.925753
-3.583893,-0.20242,0.952309
-3.583893,-0.101859,0.969121
-3.583893,0.0,0.974902
-3.583893,0.101859,0.969121
-3.583893,0.202419,0.952309
-3.583893,0.300795,0.925752
-3.583893,0.396593,0.890763
-3.583893,0.489581,0.84798
-3.583893,0.579141,0.797119
-3.583893,0.687938,-0.71238
-3.583893,0.806335,-0.585837
-3.583893,0.868198,-0.501254
-3.583893,0.92156,-0.410305
-3.583893,0.945518,0.34414
-3.583893,0.977969,0.243835
-3.583893,1.014158,-0.070917
-3.583893,1.000866,0.140663
-3.503356,-1.014047,-0.070909
-3.503356,-1.00152,0.140754
-3.503356,-0.979104,0.244118
-3.503356,-0.934046,0.377379
-3.503356,-0.888567,0.47246
-3.503356,-0.8326,0.561596
-3.503356,-0.766315,0.643014
-3.503356,-0.636287,0.758297
-3.503356,-0.549695,0.814957
-3.503356,-0.458886,0.863039
-3.503356,-0.364922,0.903213
-3.503356,-0.268234,0.935443
-3.503356,-0.169067,0.958829
-3.503356,-0.06797,0.972018
-3.503356,0.034011,0.973942
-3.503356,0.135541,0.964424
-3.503356,0.235437,0.944284
-3.503356,0.332983,0.914864
-3.503356,0.427875,0.877274
-3.503356,0.519783,0.831827
-3.503356,0.60783,0.777987
-3.503356,0.712956,-0.688494
-3.503356,0.788226,0.61583
-3.503356,0.868765,0.501582
-3.503356,0.917295,0.408406
-3.503356,0.931306,0.376272
-3.503356,0.967115,0.277316
-3.503356,1.01492,-0.035442
-3.503356,0.993568,0.175193
-3.422819,-1.015055,-0.035446
-3.422819,-0.995082,0.17546
-3.422819,-0.969392,0.277969
-3.422819,-0.904494,-0.441151
-3.422819,-0.87087,0.502797
-3.422819,-0.811369,0.589494
-3.422819,-0.737309,-0.663876
-3.422819,-0.608167,-0.778418
-3.422819,-0.522334,-0.835909
-3.422819,-0.430799,-0.883268
-3.422819,-0.334713,-0.919615
-3.422819,-0.235622,-0.945027
-3.422819,-0.134983,-0.96045
-3.422819,-0.033773,-0.967121
-3.422819,0.067536,-0.965806
-3.422819,0.168629,-0.95634
-3.422819,0.268889,-0.937726
-3.422819,0.367155,-0.90874
-3.422819,0.461885,-0.868679
-3.422819,0.551617,-0.817806
-3.422819,0.635403,-0.757244
-3.422819,0.712892,-0.688432
-3.422819,0.783982,-0.612514
-3.422819,0.84824,-0.530039
-3.422819,0.904493,-0.441151
-3.422819,0.950889,-0.346095
-3.422819,0.984529,0.209268
-3.422819,1.010823,-0.106242
-3.422819,1.004869,0.105616
-3.342282,-1.01085,-0.106245
-3.342282,-1.006563,0.105794
-3.342282,-0.987576,0.209916
-3.342282,-0.946765,0.344594
-3.342282,-0.886619,-0.471424
-3.342282,-0.82759,-0.558216
-3.342282,-0.760983,-0.63854
-3.342282,-0.635308,-0.757131
-3.342282,-0.551481,-0.817604
-3.342282,-0.461743,-0.868412
-3.342282,-0.367044,-0.908467
-3.342282,-0.268827,-0.937512
-3.342282,-0.168607,-0.956218
-3.342282,-0.067532,-0.965756
-3.342282,0.033771,-0.967083
-3.342282,0.134969,-0.960357
-3.342282,0.235576,-0.944842
-3.342282,0.334618,-0.919356
-3.342282,0.430664,-0.882991
-3.342282,0.522191,-0.83568
-3.342282,0.608056,-0.778276
-3.342282,0.689243,0.713732
-3.342282,0.760983,-0.63854
-3.342282,0.82759,-0.558216
-3.342282,0.886618,-0.471423
-3.342282,0.912465,0.406256
-3.342282,0.975042,-0.279589
-3.342282,1.000797,-0.176468
-3.342282,1.01157,0.035325
-3.261745,-1.000711,-0.176452
-3.261745,-1.013175,0.035381
-3.261745,-0.97481,-0.279522
-3.261745,-0.950421,-0.345925
-3.261745,-0.91964,0.40945
-3.261745,-0.867804,-0.501027
-3.261745,-0.806158,-0.585708
-3.261745,-0.661797,-0.735
-3.261745,-0.579991,-0.79829
-3.261745,-0.492125,-0.852385
-3.261745,-0.398957,-0.896072
-3.261745,-0.301785,-0.928798
-3.261745,-0.202126,-0.950926
-3.261745,-0.101266,-0.96348
-3.261745,0.0,-0.967518
-3.261745,0.101266,-0.96348
-3.261745,0.202126,-0.950926
-3.261745,0.301785,-0.928798
-3.261745,0.398957,-0.896072
-3.261745,0.492125,-0.852385
-3.261745,0.579991,-0.79829
-3.261745,0.661797,-0.735
-3.261745,0.737261,-0.663833
-3.261745,0.804518,0.584517
-3.261745,0.860913,0.497049
-3.261745,0.920799,-0.409966
-3.261745,0.948135,0.308068
-3.261745,0.979947,0.208294
-3.261745,1.012312,-0.070788
-3.261745,0.995933,0.139969
-3.181208,-1.014485,-0.035427
-3.181208,-0.99504,0.175452
-3.181208,-0.969346,0.277956
-3.181208,-0.904093,-0.440956
-3.181208,-0.870276,0.502454
-3.181208,-0.810651,0.588972
-3.181208,-0.737268,-0.663839
-3.181208,-0.635805,0.757723
-3.181208,-0.549501,0.814669
-3.181208,-0.458839,0.86295
-3.181208,-0.364871,0.903087
-3.181208,-0.268114,0.935024
-3.181208,-0.168921,0.957996
-3.181208,-0.06789,0.970866
-3.181208,0.033969,0.972738
-3.181208,0.135406,0.963464
-3.181208,0.235298,0.943728
-3.181208,0.332904,0.914645
-3.181208,0.427796,0.877113
-3.181208,0.51944,0.831278
-3.181208,0.606644,0.776469
-3.181208,0.661311,0.73446
-3.181208,0.759067,0.636933
-3.181208,0.838783,0.52413
-3.181208,0.887983,0.433098
-3.181208,0.936021,-0.378177
-3.181208,0.974423,-0.279411
-3.181208,0.999959,-0.17632
-3.181208,1.009116,0.035239
-3.100671,-1.005867,-0.141365
-3.100671,-1.010365,0.070652
-3.100671,-0.984337,-0.245423
-3.100671,-0.958584,0.311463
-3.100671,-0.904163,0.44099
-3.100671,-0.851339,0.531976
-3.100671,-0.788317,0.615901
-3.100671,-0.71593,0.691366
-3.100671,-0.63571,0.757609
-3.100671,-0.549485,0.814645
-3.100671,-0.45886,0.86299
-3.100671,-0.364884,0.903119
-3.100671,-0.268099,0.934971
-3.100671,-0.16889,0.957821
-3.100671,-0.067871,0.970597
-3.100671,0.033959,0.972453
-3.100671,0.135376,0.963251
-3.100671,0.235274,0.943633
-3.100671,0.332904,0.914647
-3.100671,0.427796,0.877111
-3.100671,0.519329,0.8311
-3.100671,0.606157,0.775845
-3.100671,0.660305,0.733343
-3.100671,0.777061,0.607107
-3.100671,0.833032,0.520536
-3.100671,0.886369,-0.471291
-3.100671,0.909557,0.367485
-3.100671,0.974107,-0.279321
-3.100671,0.992543,-0.210972
-3.100671,1.010079,0.0
-3.020134,-1.005619,-0.14133
-3.020134,-1.010349,0.07065
-3.020134,-0.984065,-0.245355
-3.020134,-0.958626,0.311477
-3.020134,-0.904066,0.440942
-3.020134,-0.851147,0.531855
-3.020134,-0.788095,0.615727
-3.020134,-0.715755,0.691196
-3.020134,-0.635624,0.757508
-3.020134,-0.549482,0.814641
-3.020134,-0.458894,0.863054
-3.020134,-0.364906,0.903175
-3.020134,-0.268089,0.934938
-3.020134,-0.168861,0.95766
-3.020134,-0.067853,0.970336
-3.020134,0.033949,0.972176
-3.020134,0.135348,0.96305
-3.020134,0.235255,0.943557
-3.020134,0.332912,0.914669
-3.020134,0.427801,0.877123
-3.020134,0.519202,0.830897
-3.020134,0.60557,0.775094
-3.020134,0.684261,0.708573
-3.020134,0.772527,0.603564
-3.020134,0.82763,-0.558243
-3.020134,0.886322,-0.471266
-3.020134,0.914209,0.332745
-3.020134,0.962433,-0.312713
-3.020134,0.992103,-0.210878
-3.020134,1.008347,0.0
-2.939597,-1.00538,-0.141297
-2.939597,-1.010355,0.070651
-2.939597,-0.983802,-0.245289
-2.939597,-0.958694,0.311498
-2.939597,-0.903985,0.440903
-2.939597,-0.850964,0.531741
-2.939597,-0.78788,0.615559
-2.939597,-0.715587,0.691034
-2.939597,-0.63555,0.757418
-2.939597,-0.549492,0.814655
-2.939597,-0.458941,0.863142
-2.939597,-0.364939,0.903257
-2.939597,-0.268086,0.934927
-2.939597,-0.168836,0.957514
-2.939597,-0.067835,0.970086
-2.939597,0.03394,0.971908
-2.939597,0.135321,0.962862
-2.939597,0.235241,0.9435
-2.939597,0.332928,0.914713
-2.939597,0.427813,0.877147
-2.939597,0.519059,0.830668
-2.939597,0.604886,0.774219
-2.939597,0.682268,0.706509
-2.939597,0.761169,-0.638697
-2.939597,0.827694,-0.558287
-2.939597,0.846642,0.450168
-2.939597,0.917582,0.29814
-2.939597,0.93152,0.267109
-2.939597,0.969595,0.170966
-2.939597,1.008331,-0.035212
-2.85906,-1.005152,-0.141265
-2.85906,-1.010383,0.070653
-2.85906,-0.983548,-0.245226
-2.85906,-0.958785,0.311528
-2.85906,-0.903921,0.440872
-2.85906,-0.850792,0.531634
-2.85906,-0.787673,0.615397
-2.85906,-0.715428,0.690881
-2.85906,-0.635486,0.757342
-2.85906,-0.549514,0.814689
-2.85906,-0.459,0.863254
-2.85906,-0.364982,0.903362
-2.85906,-0.268089,0.934936
-2.85906,-0.168813,0.957383
-2.85906,-0.067818,0.969846
-2.85906,0.033931,0.971651
-2.85906,0.135297,0.962687
-2.85906,0.235231,0.943461
-2.85906,0.332952,0.914778
-2.85906,0.427832,0.877185
-2.85906,0.518905,0.830421
-2.85906,0.604124,0.773243
-2.85906,0.680024,0.704185
-2.85906,0.761269,-0.638781
-2.85906,0.792936,0.534842
-2.85906,0.862377,0.383955
-2.85906,0.920134,-0.40967
-2.85906,0.935381,0.233217
-2.85906,0.962404,0.169698
-2.85906,1.006588,-0.035151
-2.778523,-1.004937,-0.141235
-2.778523,-1.010434,0.070656
-2.778523,-0.983304,-0.245165
-2.778523,-0.9589,0.311565
-2.778523,-0.903872,0.440848
-2.778523,-0.850631,0.531533
-2.778523,-0.787473,0.615242
-2.778523,-0.715277,0.690735
-2.778523,-0.635433,0.757279
-2.778523,-0.54955,0.814741
-2.778523,-0.459072,0.863388
-2.778523,-0.365034,0.903491
-2.778523,-0.268097,0.934966
-2.778523,-0.168792,0.957268
-2.778523,-0.067802,0.969617
-2.778523,0.033922,0.971404
-2.778523,0.135274,0.962526
-2.778523,0.235226,0.943441
-2.778523,0.332984,0.914865
-2.778523,0.427859,0.87724
-2.778523,0.518749,0.830171
-2.778523,0.6163855,0.7611825
-2.778523,0.713051,-0.688585
-2.778523,0.769669,0.559197
-2.778523,0.783708,0.528618
-2.778523,0.863006,0.348677
-2.778523,0.920043,-0.40963
-2.778523,0.940312,0.19987
-2.778523,0.967753,0.136009
-2.778523,1.004737,-0.035086
-2.697987,-1.009141,-0.106065
-2.697987,-1.006812,0.10582
-2.697987,-0.988288,0.210067
-2.697987,-0.946964,0.344667
-2.697987,-0.886329,-0.471269
-2.697987,-0.828015,-0.558503
-2.697987,-0.76153,-0.638999
-2.697987,-0.661769,-0.734969
-2.697987,-0.60754,-0.777616
-2.697987,-0.521241,-0.83416
-2.697987,-0.429697,-0.88101
-2.697987,-0.333981,-0.917607
-2.697987,-0.235348,-0.943931
-2.697987,-0.134982,-0.960444
-2.697987,-0.033795,-0.967775
-2.697987,0.067572,-0.966319
-2.697987,0.168567,-0.95599
-2.697987,0.268473,-0.936276
-2.697987,0.366274,-0.90656
-2.697987,0.460734,-0.866515
-2.697987,0.550634,-0.816349
-2.697987,0.602519,0.771189
-2.697987,0.713152,-0.688683
-2.697987,0.76153,-0.638999
-2.697987,0.797897,0.460666
-2.697987,0.867866,-0.501063
-2.697987,0.9037,-0.440764
-2.697987,0.931224,0.197938
-2.697987,0.961315,0.135104
-2.697987,1.002892,-0.035022
-2.61745,-1.008985,-0.106049
-2.61745,-1.006949,0.105835
-2.61745,-0.988494,0.210111
-2.61745,-0.947088,0.344712
-2.61745,-0.886374,-0.471293
-2.61745,-0.828163,-0.558603
-2.61745,-0.761689,-0.639133
-2.61745,-0.661823,-0.735028
-2.61745,-0.607525,-0.777597
-2.61745,-0.521152,-0.834018
-2.61745,-0.429597,-0.880804
-2.61745,-0.333921,-0.917439
-2.61745,-0.235339,-0.943892
-2.61745,-0.134998,-0.960557
-2.61745,-0.033803,-0.96798
-2.61745,0.067585,-0.966504
-2.61745,0.168578,-0.956055
-2.61745,0.268448,-0.936188
-2.61745,0.366196,-0.906368
-2.61745,0.46063,-0.86632
-2.61745,0.550564,-0.816245
-2.61745,0.601788,0.770253
-2.61745,0.71327,-0.688797
-2.61745,0.761689,-0.639133
-2.61745,0.809543,0.394841
-2.61745,0.848537,-0.530225
-2.61745,0.903694,-0.440761
-2.61745,0.955371,0.134269
-2.61745,0.980771,0.068582
-2.61745,1.00119,-0.034962
-2.536913,-1.008844,-0.106034
-2.536913,-1.007109,0.105851
-2.536913,-0.988723,0.210159
-2.536913,-0.947233,0.344765
-2.536913,-0.886437,-0.471327
-2.536913,-0.828329,-0.558715
-2.536913,-0.761867,-0.639282
-2.536913,-0.66189,-0.735104
-2.536913,-0.607521,-0.777592
-2.536913,-0.521071,-0.833888
-2.536913,-0.429502,-0.880609
-2.536913,-0.333865,-0.917286
-2.536913,-0.235333,-0.943871
-2.536913,-0.135016,-0.960692
-2.536913,-0.033811,-0.968208
-2.536913,0.067599,-0.966712
-2.536913,0.168593,-0.95614
-2.536913,0.268427,-0.936116
-2.536913,0.366124,-0.906188
-2.536913,0.460533,-0.866136
-2.536913,0.550502,-0.816153
-2.536913,0.60119,0.769489
-2.536913,0.713405,-0.688928
-2.536913,0.72327,0.606896
-2.536913,0.807049,-0.586355
-2.536913,0.848678,-0.530313
-2.536913,0.878117,0.251796
-2.536913,0.950466,0.133579
-2.536913,0.987594,0.034488
-2.536913,1.002085,-0.070073
-2.456376,-1.008718,-0.106021
-2.456376,-1.007291,0.105871
-2.456376,-0.988975,0.210213
-2.456376,-0.947399,0.344825
-2.456376,-0.886518,-0.47137
-2.456376,-0.828515,-0.55884
-2.456376,-0.762062,-0.639446
-2.456376,-0.661972,-0.735194
-2.456376,-0.607529,-0.777601
-2.456376,-0.520998,-0.833771
-2.456376,-0.429413,-0.880427
-2.456376,-0.333814,-0.917146
-2.456376,-0.235332,-0.943867
-2.456376,-0.135038,-0.960847
-2.456376,-0.033819,-0.96846
-2.456376,0.067615,-0.966943
-2.456376,0.168612,-0.956246
-2.456376,0.268411,-0.936059
-2.456376,0.366057,-0.906022
-2.456376,0.460442,-0.865965
-2.456376,0.55045,-0.816075
-2.456376,0.600787,0.768972
-2.456376,0.669814,0.693613
-2.456376,0.720309,0.604411
-2.456376,0.807249,-0.586501
-2.456376,0.818864,0.330843
-2.456376,0.871963,0.250031
-2.456376,0.948432,-0.345201
-2.456376,0.985917,0.034429
-2.456376,1.001323,-0.070019
-2.375839,-1.008609,-0.106009
-2.375839,-1.007493,0.105892
-2.375839,-0.989248,0.210271
-2.375839,-0.947585,0.344893
-2.375839,-0.886617,-0.471422
-2.375839,-0.828718,-0.558978
-2.375839,-0.762275,-0.639625
-2.375839,-0.662067,-0.7353
-2.375839,-0.607547,-0.777625
-2.375839,-0.520933,-0.833668
-2.375839,-0.429331,-0.880258
-2.375839,-0.333768,-0.917021
-2.375839,-0.235336,-0.94388
-2.375839,-0.135063,-0.961023
-2.375839,-0.033829,-0.968734
-2.375839,0.067633,-0.967196
-2.375839,0.168634,-0.956371
-2.375839,0.268399,-0.93602
-2.375839,0.365995,-0.905869
-2.375839,0.460358,-0.865807
-2.375839,0.550406,-0.816011
-2.375839,0.600622,0.768761
-2.375839,0.669157,0.692932
-2.375839,0.731133,0.571224
-2.375839,0.785308,-0.61355
-2.375839,0.849015,-0.530523
-2.375839,0.903783,-0.440804
-2.375839,0.945642,0.132901
-2.375839,0.974543,0.068147
-2.375839,0.998325,-0.034862
-2.295302,-1.011747,-0.070748
-2.295302,-1.002943,0.140954
-2.295302,-0.980949,0.244578
-2.295302,-0.934334,0.377495
-2.295302,-0.887024,0.471639
-2.295302,-0.829784,0.559696
-2.295302,-0.76341,0.640577
-2.295302,-0.688415,-0.712874
-2.295302,-0.607526,0.777597
-2.295302,-0.52042,0.832845
-2.295302,-0.428729,0.879025
-2.295302,-0.333414,0.916047
-2.295302,-0.235303,0.943749
-2.295302,-0.135184,0.961884
-2.295302,-0.03388,0.970194
-2.295302,0.067726,0.968528
-2.295302,0.16873,0.956913
-2.295302,0.268255,0.935516
-2.295302,0.365424,0.904457
-2.295302,0.459086,0.863416
-2.295302,0.547106,0.811118
-2.295302,0.635218,-0.757024
-2.295302,0.713904,-0.689409
-2.295302,0.762504,-0.639817
-2.295302,0.807702,-0.58683
-2.295302,0.868482,-0.501418
-2.295302,0.919854,-0.409545
-2.295302,0.960511,-0.312089
-2.295302,0.961806,0.10109
-2.295302,0.993312,0.0
-2.214765,-1.013649,-0.035397
-2.214765,-0.997184,0.17583
-2.214765,-0.971408,0.278547
-2.214765,-0.903976,-0.440898
-2.214765,-0.849428,-0.530781
-2.214765,-0.785801,-0.613935
-2.214765,-0.738837,-0.665252
-2.214765,-0.688884,0.71336
-2.214765,-0.579289,-0.797324
-2.214765,-0.490773,-0.850043
-2.214765,-0.397733,-0.893324
-2.214765,-0.301182,-0.926944
-2.214765,-0.20211,-0.950855
-2.214765,-0.101439,-0.965129
-2.214765,0.0,-0.969872
-2.214765,0.101439,-0.965129
-2.214765,0.20211,-0.950854
-2.214765,0.301182,-0.926943
-2.214765,0.397733,-0.893323
-2.214765,0.490772,-0.850042
-2.214765,0.579289,-0.797323
-2.214765,0.64888,0.720654
-2.214765,0.705995,0.635681
-2.214765,0.773304,0.446467
-2.214765,0.794358,0.387434
-2.214765,0.868658,-0.50152
-2.214765,0.919888,-0.409561
-2.214765,0.960426,-0.312061
-2.214765,0.963997,0.10132
-2.214765,0.99428,0.0
-2.134228,-1.013692,-0.035399
-2.134228,-0.997507,0.175887
-2.134228,-0.971721,0.278637
-2.134228,-0.904074,-0.440947
-2.134228,-0.849656,-0.530924
-2.134228,-0.78607,-0.614146
-2.134228,-0.739076,-0.665467
-2.134228,-0.688851,0.713326
-2.134228,-0.579305,-0.797345
-2.134228,-0.490719,-0.84995
-2.134228,-0.397679,-0.893201
-2.134228,-0.30117,-0.926906
-2.134228,-0.202137,-0.950978
-2.134228,-0.101469,-0.965408
-2.134228,0.0,-0.970214
-2.134228,0.101468,-0.965407
-2.134228,0.202136,-0.950977
-2.134228,0.301169,-0.926904
-2.134228,0.397678,-0.893199
-2.134228,0.490718,-0.849948
-2.134228,0.579304,-0.797344
-2.134228,0.649931,0.721821
-2.134228,0.690982,0.667273
-2.134228,0.770549,0.481493
-2.134228,0.780655,0.450711
-2.134228,0.86409,0.28076
-2.134228,0.919703,0.195489
-2.134228,0.960372,-0.312044
-2.134228,0.967643,0.101703
-2.134228,0.995918,0.0
-2.053691,-1.013753,-0.035401
-2.053691,-0.997849,0.175948
-2.053691,-0.972051,0.278731
-2.053691,-0.90419,-0.441003
-2.053691,-0.8499,-0.531076
-2.053691,-0.786355,-0.614368
-2.053691,-0.739329,-0.665695
-2.053691,-0.688831,0.713305
-2.053691,-0.579332,-0.797382
-2.053691,-0.490674,-0.849873
-2.053691,-0.397631,-0.893095
-2.053691,-0.301163,-0.926884
-2.053691,-0.202167,-0.95112
-2.053691,-0.1015,-0.965705
-2.053691,0.0,-0.970575
-2.053691,0.1015,-0.965704
-2.053691,0.202166,-0.951117
-2.053691,0.301162,-0.926881
-2.053691,0.39763,-0.893091
-2.053691,0.490672,-0.849869
-2.053691,0.57933,-0.797379
-2.053691,0.651331,0.723376
-2.053691,0.693519,0.669724
-2.053691,0.767937,0.51798
-2.053691,0.829698,-0.559638
-2.053691,0.842183,0.340264
-2.053691,0.927832,0.197217
-2.053691,0.960345,-0.312035
-2.053691,0.995032,-0.175451
-2.053691,0.991921,0.034639
-1.973154,-1.013832,-0.035404
-1.973154,-0.998207,0.176011
-1.973154,-0.972398,0.278831
-1.973154,-0.90432,-0.441067
-1.973154,-0.850158,-0.531238
-1.973154,-0.786652,-0.6146
-1.973154,-0.739595,-0.665934
-1.973154,-0.688823,0.713297
-1.973154,-0.579369,-0.797432
-1.973154,-0.490638,-0.849811
-1.973154,-0.397591,-0.893004
-1.973154,-0.301162,-0.92688
-1.973154,-0.2022,-0.951278
-1.973154,-0.101533,-0.966019
-1.973154,0.0,-0.970952
-1.973154,0.101532,-0.966017
-1.973154,0.202199,-0.951273
-1.973154,0.301159,-0.926874
-1.973154,0.397588,-0.892998
-1.973154,0.490635,-0.849805
-1.973154,0.579366,-0.797428
-1.973154,0.65295,0.725174
-1.973154,0.696455,0.672559
-1.973154,0.763329,0.554591
-1.973154,0.827089,0.403398
-1.973154,0.887341,-0.471808
-1.973154,0.904307,0.259306
-1.973154,0.971216,-0.278492
-1.973154,0.995313,-0.175501
-1.973154,0.995235,0.034754
-1.892617,-1.013928,-0.035407
-1.892617,-0.998581,0.176077
-1.892617,-0.97276,0.278935
-1.892617,-0.904467,-0.441138
-1.892617,-0.85043,-0.531408
-1.892617,-0.786962,-0.614842
-1.892617,-0.739872,-0.666184
-1.892617,-0.688828,0.713302
-1.892617,-0.579416,-0.797497
-1.892617,-0.490612,-0.849764
-1.892617,-0.397559,-0.892931
-1.892617,-0.301166,-0.926893
-1.892617,-0.202238,-0.951454
-1.892617,-0.101567,-0.966349
-1.892617,0.0,-0.971344
-1.892617,0.101567,-0.966345
-1.892617,0.202236,-0.951445
-1.892617,0.301162,-0.926882
-1.892617,0.397554,-0.89292
-1.892617,0.490606,-0.849755
-1.892617,0.579411,-0.797491
-1.892617,0.63004,0.750853
-1.892617,0.699534,0.675533
-1.892617,0.78696,-0.614841
-1.892617,0.813315,0.469568
-1.892617,0.887538,-0.471913
-1.892617,0.934802,-0.377684
-1.892617,0.980796,-0.24454
-1.892617,1.000732,-0.140644
-1.892617,0.992151,0.069378
-1.812081,-1.014042,-0.035411
-1.812081,-0.99897,0.176145
-1.812081,-0.973137,0.279042
-1.812081,-0.904628,-0.441217
-1.812081,-0.850715,-0.531586
-1.812081,-0.787284,-0.615094
-1.812081,-0.740161,-0.666444
-1.812081,-0.688845,0.71332
-1.812081,-0.579473,-0.797577
-1.812081,-0.490595,-0.849735
-1.812081,-0.397534,-0.892875
-1.812081,-0.301175,-0.926922
-1.812081,-0.202278,-0.951645
-1.812081,-0.101604,-0.966694
-1.812081,0.0,-0.97175
-1.812081,0.101603,-0.966686
-1.812081,0.202275,-0.95163
-1.812081,0.301169,-0.926904
-1.812081,0.397526,-0.892857
-1.812081,0.490585,-0.849719
-1.812081,0.579465,-0.797565
-1.812081,0.631254,0.7523
-1.812081,0.740157,-0.66644
-1.812081,0.787281,-0.615091
-1.812081,0.82468,0.476129
-1.812081,0.898312,0.326959
-1.812081,0.934881,-0.377716
-1.812081,0.980882,-0.244561
-1.812081,1.001275,-0.14072
-1.812081,0.996537,0.069685
-1.731544,-1.014173,-0.035416
-1.731544,-0.999372,0.176216
-1.731544,-0.973526,0.279154
-1.731544,-0.904804,-0.441303
-1.731544,-0.88746,0.471871
-1.731544,-0.787617,-0.615354
-1.731544,-0.74046,-0.666713
-1.731544,-0.688876,0.713352
-1.731544,-0.579541,-0.79767
-1.731544,-0.490587,-0.849721
-1.731544,-0.397517,-0.892837
-1.731544,-0.301191,-0.926969
-1.731544,-0.202322,-0.951851
-1.731544,-0.101641,-0.967051
-1.731544,0.0,-0.972168
-1.731544,0.10164,-0.967038
-1.731544,0.202317,-0.951828
-1.731544,0.301181,-0.92694
-1.731544,0.397503,-0.892807
-1.731544,0.490572,-0.849695
-1.731544,0.579527,-0.797651
-1.731544,0.632377,0.753638
-1.731544,0.740453,-0.666707
-1.731544,0.809762,-0.588326
-1.731544,0.851009,-0.531769
-1.731544,0.880736,0.392129
-1.731544,0.948309,-0.345156
-1.731544,0.989298,-0.210282
-1.731544,1.005807,-0.105715
-1.731544,0.994123,0.104487
-1.651007,-1.015309,0.0
-1.651007,-0.992532,0.210969
-1.651007,-0.973928,0.279269
-1.651007,-0.904995,-0.441396
-1.651007,-0.887584,0.471937
-1.651007,-0.829405,0.559441
-1.651007,-0.738995,0.665394
-1.651007,-0.635885,0.757819
-1.651007,-0.55123,0.817232
-1.651007,-0.461144,0.867286
-1.651007,-0.366611,0.907395
-1.651007,-0.268785,0.937366
-1.651007,-0.168819,0.95742
-1.651007,-0.06769,0.968007
-1.651007,0.033856,0.969505
-1.651007,0.135197,0.961976
-1.651007,0.235646,0.945126
-1.651007,0.334295,0.918469
-1.651007,0.429978,0.881586
-1.651007,0.521301,0.834256
-1.651007,0.606603,0.776416
-1.651007,0.707636,0.683356
-1.651007,0.809629,0.546101
-1.651007,0.860216,0.457385
-1.651007,0.904982,-0.441389
-1.651007,0.948433,0.271959
-1.651007,0.982587,0.173257
-1.651007,1.009288,-0.070576
-1.651007,0.991349,0.139325
-1.57047,-1.015529,0.0
-1.57047,-0.992967,0.211062
-1.57047,-0.974341,0.279388
-1.57047,-0.9052,-0.441495
-1.57047,-0.887723,0.472011
-1.57047,-0.829428,0.559456
-1.57047,-0.739005,0.665403
-1.57047,-0.608335,-0.778633
-1.57047,-0.520795,-0.833447
-1.57047,-0.428925,-0.879427
-1.57047,-0.333641,-0.91667
-1.57047,-0.235604,-0.944956
-1.57047,-0.135446,-0.963752
-1.57047,-0.033959,-0.972448
-1.57047,0.067877,-0.970679
-1.57047,0.169014,-0.958527
-1.57047,0.268531,-0.936477
-1.57047,0.365706,-0.905153
-1.57047,0.459928,-0.864999
-1.57047,0.550474,-0.816111
-1.57047,0.636312,-0.758328
-1.57047,0.765154,-0.64204
-1.57047,0.831573,-0.560903
-1.57047,0.870604,-0.502643
-1.57047,0.915235,0.369779
-1.57047,0.960566,-0.312107
-1.57047,0.967954,0.241338
-1.57047,1.011775,0.0
-1.489933,-0.997404,-0.175869
-1.489933,-1.015515,0.035463
-1.489933,-0.960705,-0.312152
-1.489933,-0.935363,-0.377911
-1.489933,-0.921629,0.410336
-1.489933,-0.869392,0.501944
-1.489933,-0.808124,0.587136
-1.489933,-0.689044,0.713525
-1.489933,-0.579805,-0.798033
-1.489933,-0.490623,-0.849784
-1.489933,-0.397515,-0.892833
-1.489933,-0.30127,-0.927213
-1.489933,-0.202472,-0.952554
-1.489933,-0.10176,-0.968184
-1.489933,0.0,-0.973463
-1.489933,0.101755,-0.968132
-1.489933,0.202451,-0.952458
-1.489933,0.301231,-0.927092
-1.489933,0.39746,-0.892709
-1.489933,0.490561,-0.849677
-1.489933,0.579749,-0.797956
-1.489933,0.686603,0.710998
-1.489933,0.75737,0.635508
-1.489933,0.819763,0.552937
-1.489933,0.874446,0.464951
-1.489933,0.948576,-0.345253
-1.489933,0.989741,-0.210376
-1.489933,1.007631,-0.105906
-1.489933,1.005198,0.105651
-1.409396,-1.008661,-0.106015
-1.409396,-1.011277,0.10629
-1.409396,-0.981445,-0.244702
-1.409396,-0.951091,0.346169
-1.409396,-0.871218,-0.502998
-1.409396,-0.811186,-0.589361
-1.409396,-0.765868,-0.642639
-1.409396,-0.636703,-0.758793
-1.409396,-0.550654,-0.816378
-1.409396,-0.459997,-0.865129
-1.409396,-0.365772,-0.905317
-1.409396,-0.268638,-0.936853
-1.409396,-0.169131,-0.959187
-1.409396,-0.067936,-0.971535
-1.409396,0.033988,-0.973285
-1.409396,0.13553,-0.964344
-1.409396,0.235663,-0.945192
-1.409396,0.333621,-0.916616
-1.409396,0.428856,-0.879286
-1.409396,0.520792,-0.833441
-1.409396,0.608532,-0.778886
-1.409396,0.71229,0.687851
-1.409396,0.781413,0.610507
-1.409396,0.842626,0.526531
-1.409396,0.921139,-0.410118
-1.409396,0.941644,0.342731
-1.409396,0.977753,0.243781
-1.409396,1.013617,-0.035396
-1.409396,0.995494,0.175532
-1.328859,-1.015078,-0.035447
-1.328859,-1.00154,0.176599
-1.328859,-0.97563,0.279757
-1.328859,-0.905891,-0.441833
-1.328859,-0.888227,0.472279
-1.328859,-0.829597,0.55957
-1.328859,-0.739125,0.665511
-1.328859,-0.608767,-0.779187
-1.328859,-0.520947,-0.833689
-1.328859,-0.428971,-0.879521
-1.328859,-0.333726,-0.916904
-1.328859,-0.235759,-0.945576
-1.328859,-0.135595,-0.964807
-1.328859,-0.034004,-0.973741
-1.328859,0.067959,-0.971866
-1.328859,0.169151,-0.959305
-1.328859,0.26861,-0.936753
-1.328859,0.36568,-0.90509
-1.328859,0.459884,-0.864916
-1.328859,0.550599,-0.816297
-1.328859,0.63678,-0.758885
-1.328859,0.766168,-0.642891
-1.328859,0.832622,-0.56161
-1.328859,0.88927,-0.472833
-1.328859,0.935654,-0.378029
-1.328859,0.971714,-0.278635
-1.328859,1.003494,-0.141032
-1.328859,1.012703,0.070815
-1.248322,-0.997608,-0.175905
-1.248322,-1.016453,0.035495
-1.248322,-0.960979,-0.312241
-1.248322,-0.935843,-0.378105
-1.248322,-0.922468,0.410709
-1.248322,-0.869807,0.502184
-1.248322,-0.808286,0.587254
-1.248322,-0.689327,0.713819
-1.248322,-0.580156,-0.798517
-1.248322,-0.490748,-0.850001
-1.248322,-0.397587,-0.892995
-1.248322,-0.301397,-0.927603
-1.248322,-0.202642,-0.953355
-1.248322,-0.101883,-0.969354
-1.248322,0.0,-0.974739
-1.248322,0.101863,-0.969166
-1.248322,0.202569,-0.953013
-1.248322,0.301257,-0.927173
-1.248322,0.397391,-0.892556
-1.248322,0.49053,-0.849623
-1.248322,0.579955,-0.79824
-1.248322,0.68869,0.713159
-1.248322,0.789706,-0.616986
-1.248322,0.852969,-0.532994
-1.248322,0.90613,-0.441949
-1.248322,0.948125,0.345089
-1.248322,0.972808,0.278948
-1.248322,1.012404,-0.070794
-1.248322,1.00593,0.141374
-1.167785,-1.009089,-0.10606
-1.167785,-1.012498,0.106418
-1.167785,-0.981678,-0.24476
-1.167785,-0.95223,0.346583
-1.167785,-0.872194,-0.503561
-1.167785,-0.812315,-0.590181
-1.167785,-0.766952,-0.643549
-1.167785,-0.637302,-0.759507
-1.167785,-0.55094,-0.816803
-1.167785,-0.460116,-0.865353
-1.167785,-0.365878,-0.905579
-1.167785,-0.268797,-0.937407
-1.167785,-0.169298,-0.960139
-1.167785,-0.068022,-0.972755
-1.167785,0.034029,-0.974463
-1.167785,0.135644,-0.965155
-1.167785,0.235735,-0.945482
-1.167785,0.333575,-0.91649
-1.167785,0.42874,-0.879046
-1.167785,0.520777,-0.833417
-1.167785,0.60882,-0.779255
-1.167785,0.71422,0.689715
-1.167785,0.785069,0.613363
-1.167785,0.848623,0.530278
-1.167785,0.920508,0.409836
-1.167785,0.961093,-0.312278
-1.167785,0.990227,-0.210479
-1.167785,1.016442,0.0
-1.167785,0.993722,0.211222
-1.087248,-1.015807,-0.035473
-1.087248,-1.002922,0.176842
-1.087248,-0.976972,0.280142
-1.087248,-0.906689,-0.442222
-1.087248,-0.888854,0.472612
-1.087248,-0.829916,0.559785
-1.087248,-0.739383,0.665744
-1.087248,-0.609277,-0.779838
-1.087248,-0.521188,-0.834075
-1.087248,-0.429098,-0.879782
-1.087248,-0.333866,-0.917288
-1.087248,-0.235936,-0.946287
-1.087248,-0.135743,-0.965861
-1.087248,-0.034045,-0.97493
-1.087248,0.068029,-0.972854
-1.087248,0.169241,-0.959815
-1.087248,0.268603,-0.93673
-1.087248,0.365539,-0.90474
-1.087248,0.45971,-0.864589
-1.087248,0.5506,-0.816298
-1.087248,0.637143,-0.759318
-1.087248,0.767135,-0.643702
-1.087248,0.833674,-0.56232
-1.087248,0.890145,-0.473298
-1.087248,0.936221,-0.378258
-1.087248,0.981778,-0.244785
-1.087248,1.004093,-0.141116
-1.087248,1.015339,0.070999
-1.006711,-0.997997,-0.175974
-1.006711,-1.017487,0.035531
-1.006711,-0.961421,-0.312385
-1.006711,-0.93646,-0.378354
-1.006711,-0.923396,0.411122
-1.006711,-0.85409,-0.533694
-1.006711,-0.8086,0.587482
-1.006711,-0.689723,0.714229
-1.006711,-0.580588,-0.799111
-1.006711,-0.490963,-0.850373
-1.006711,-0.397733,-0.893322
-1.006711,-0.301564,-0.928119
-1.006711,-0.20282,-0.954193
-1.006711,-0.101997,-0.970438
-1.006711,0.0,-0.975795
-1.006711,0.101936,-0.969856
-1.006711,0.202595,-0.953135
-1.006711,0.301131,-0.926785
-1.006711,0.397126,-0.89196
-1.006711,0.490287,-0.849202
-1.006711,0.579965,-0.798254
-1.006711,0.689604,0.714105
-1.006711,0.790696,-0.617759
-1.006711,0.85398,-0.533626
-1.006711,0.906928,-0.442338
-1.006711,0.952322,0.346617
-1.006711,0.976813,0.280097
-1.006711,1.013334,-0.070859
-1.006711,1.008759,0.141772
-0.926174,-1.009681,-0.106122
-0.926174,-1.013771,0.106552
-0.926174,-0.982096,-0.244864
-0.926174,-0.95342,0.347016
-0.926174,-0.873227,-0.504158
-0.926174,-0.813467,-0.591019
-0.926174,-0.768056,-0.644476
-0.926174,-0.637962,-0.760293
-0.926174,-0.551311,-0.817353
-0.926174,-0.460321,-0.865737
-0.926174,-0.366045,-0.905993
-0.926174,-0.26898,-0.938046
-0.926174,-0.169459,-0.961051
-0.926174,-0.068093,-0.973773
-0.926174,0.034057,-0.975261
-0.926174,0.135681,-0.965424
-0.926174,0.235644,-0.945117
-0.926174,0.33328,-0.915678
-0.926174,0.428317,-0.878181
-0.926174,0.520448,-0.83289
-0.926174,0.608829,-0.779266
-0.926174,0.715029,0.690495
-0.926174,0.786286,0.614314
-0.926174,0.873108,-0.504089
-0.926174,0.923342,0.411099
-0.926174,0.961587,-0.312438
-0.926174,0.990677,-0.210575
-0.926174,1.017712,0.0
-0.926174,0.996411,0.211794
-0.845638,-1.01666,-0.035503
-0.845638,-1.004321,0.177089
-0.845638,-0.978331,0.280532
-0.845638,-0.907575,-0.442654
-0.845638,-0.889594,0.473005
-0.845638,-0.830382,0.5601
-0.845638,-0.664114,0.737573
-0.845638,-0.58209,0.801178
-0.845638,-0.493952,0.855549
-0.845638,-0.40045,0.899425
-0.845638,-0.302901,0.932234
-0.845638,-0.202855,0.954357
-0.845638,-0.101622,0.966873
-0.845638,0.0,0.970891
-0.845638,0.101622,0.966873
-0.845638,0.202855,0.954357
-0.845638,0.302901,0.932233
-0.845638,0.40045,0.899425
-0.845638,0.49395,0.855546
-0.845638,0.582082,0.801168
-0.845638,0.767902,-0.644346
-0.845638,0.834636,-0.562969
-0.845638,0.889415,0.47291
-0.845638,0.936894,-0.37853
-0.845638,0.982263,-0.244906
-0.845638,1.004704,-0.141202
-0.845638,1.016868,0.071106
-0.765101,-0.998567,-0.176074
-0.765101,-1.018593,0.03557
-0.765101,-0.962028,-0.312582
-0.765101,-0.937205,-0.378655
-0.765101,-0.924393,0.411566
-0.765101,-0.8552,-0.534388
-0.765101,-0.809064,0.58782
-0.765101,-0.610056,-0.780836
-0.765101,-0.521643,-0.834803
-0.765101,-0.429389,-0.880378
-0.765101,-0.334121,-0.917989
-0.765101,-0.236176,-0.947251
-0.765101,-0.135903,-0.967
-0.765101,-0.034078,-0.97588
-0.765101,0.068048,-0.97313
-0.765101,0.169113,-0.959087
-0.765101,0.268125,-0.935063
-0.765101,0.364681,-0.902617
-0.765101,0.458702,-0.862693
-0.765101,0.549839,-0.81517
-0.765101,0.636983,-0.759127
-0.765101,0.786726,0.614657
-0.765101,0.873708,-0.504436
-0.765101,0.924297,0.411524
-0.765101,0.961995,-0.312571
-0.765101,0.99106,-0.210656
-0.765101,1.018438,0.0
-0.765101,0.997542,0.212034
-0.684564,-1.017289,-0.035525
-0.684564,-1.005246,0.177252
-0.684564,-0.979231,0.28079
-0.684564,-0.908206,-0.442962
-0.684564,-0.890141,0.473297
-0.684564,-0.830772,0.560363
-0.684564,-0.638666,-0.761132
-0.684564,-0.551759,-0.818017
-0.684564,-0.460605,-0.866272
-0.684564,-0.366263,-0.906534
-0.684564,-0.269167,-0.938698
-0.684564,-0.169585,-0.961765
-0.684564,-0.068129,-0.974284
-0.684564,0.034054,-0.975173
-0.684564,0.13554,-0.96442
-0.684564,0.235162,-0.943185
-0.684564,0.332375,-0.913193
-0.684564,0.427137,-0.87576
-0.684564,0.519332,-0.831104
-0.684564,0.608142,-0.778386
-0.684564,0.791631,-0.61849
-0.684564,0.85517,-0.53437
-0.684564,0.908034,-0.442878
-0.684564,0.954588,0.347441
-0.684564,0.979192,0.280779
-0.684564,1.014472,-0.070939
-0.684564,1.010885,0.142071
-0.604027,-1.010709,-0.10623
-0.604027,-1.015496,0.106733
-0.604027,-0.982936,-0.245073
-0.604027,-0.955036,0.347605
-0.604027,-0.874653,-0.504981
-0.604027,-0.81499,-0.592125
-0.604027,-0.769511,-0.645697
-0.604027,-0.581463,-0.800315
-0.604027,-0.491507,-0.851315
-0.604027,-0.398119,-0.894189
-0.604027,-0.301892,-0.929127
-0.604027,-0.203068,-0.955358
-0.604027,-0.102101,-0.971426
-0.604027,0.0,-0.975976
-0.604027,0.101805,-0.968607
-0.604027,0.201979,-0.950235
-0.604027,0.270084,0.941896
-0.604027,0.395181,-0.887591
-0.604027,0.48823,-0.84564
-0.604027,0.578445,-0.796161
-0.604027,0.768227,-0.644619
-0.604027,0.835366,-0.563462
-0.604027,0.890411,0.47344
-0.604027,0.937645,-0.378833
-0.604027,0.982909,-0.245067
-0.604027,1.00544,-0.141305
-0.604027,1.018145,0.071196
-0.52349,-0.999313,-0.176206
-0.52349,-1.019747,0.03561
-0.52349,-0.990296,0.246909
-0.52349,-0.938063,-0.379002
-0.52349,-0.925438,0.412031
-0.52349,-0.856308,-0.535081
-0.52349,-0.809674,0.588263
-0.52349,-0.693987,-0.718645
-0.52349,-0.581658,-0.800583
-0.52349,-0.491641,-0.851546
-0.52349,-0.398214,-0.894402
-0.52349,-0.301957,-0.929327
-0.52349,-0.203098,-0.9555
-0.52349,-0.102097,-0.971388
-0.52349,0.0,-0.975579
-0.52349,0.101709,-0.967697
-0.52349,0.201672,-0.948793
-0.52349,0.270195,0.942282
-0.52349,0.394367,-0.885763
-0.52349,0.487351,-0.844116
-0.52349,0.577706,-0.795144
-0.52349,0.768184,-0.644583
-0.52349,0.835527,-0.56357
-0.52349,0.89072,0.473604
-0.52349,0.937906,-0.378939
-0.52349,0.983159,-0.245129
-0.52349,1.010999,-0.10626
-0.52349,1.015921,0.106778
-0.442953,-0.992073,-0.210872
-0.442953,-1.019899,0.0
-0.442953,-0.990738,0.247019
-0.442953,-0.938372,-0.379127
-0.442953,-0.925792,0.412189
-0.442953,-0.856672,-0.535308
-0.442953,-0.809908,0.588432
-0.442953,-0.694281,-0.718949
-0.442953,-0.581858,-0.800858
-0.442953,-0.491782,-0.851791
-0.442953,-0.398313,-0.894625
-0.442953,-0.302019,-0.92952
-0.442953,-0.203118,-0.955597
-0.442953,-0.102081,-0.97124
-0.442953,0.0,-0.974981
-0.442953,0.101581,-0.966481
-0.442953,0.20128,-0.946949
-0.442953,0.270306,0.942669
-0.442953,0.393353,-0.883485
-0.442953,0.486251,-0.842211
-0.442953,0.576762,-0.793845
-0.442953,0.768045,-0.644467
-0.442953,0.835637,-0.563644
-0.442953,0.891031,0.473769
-0.442953,0.938169,-0.379045
-0.442953,0.983426,-0.245196
-0.442953,1.011309,-0.106293
-0.442953,1.012231,0.14226
-0.362416,-1.020531,0.035638
-0.362416,-1.018667,-0.035573
-0.362416,-0.991171,0.247127
-0.362416,-0.938691,-0.379256
-0.362416,-0.926149,0.412348
-0.362416,-0.857033,-0.535534
-0.362416,-0.793873,-0.620242
-0.362416,-0.694572,-0.71925
-0.362416,-0.582063,-0.80114
-0.362416,-0.49193,-0.852048
-0.362416,-0.398416,-0.894857
-0.362416,-0.302079,-0.929702
-0.362416,-0.203128,-0.955641
-0.362416,-0.102053,-0.970969
-0.362416,0.0,-0.97416
-0.362416,0.101418,-0.964926
-0.362416,0.200794,-0.944662
-0.362416,0.270417,0.943056
-0.362416,0.392119,-0.880713
-0.362416,0.484908,-0.839884
-0.362416,0.575593,-0.792236
-0.362416,0.662476,-0.735754
-0.362416,0.835688,-0.563679
-0.362416,0.892561,-0.474583
-0.362416,0.909294,0.443492
-0.362416,0.974017,-0.279295
-0.362416,1.006322,-0.141429
-0.362416,1.012663,0.142321
-0.281879,-1.020653,0.0
-0.281879,-1.016122,-0.071054
-0.281879,-1.000294,0.212619
-0.281879,-0.969712,0.315079
-0.281879,-0.925021,-0.411846
-0.281879,-0.872692,0.503849
-0.281879,-0.810418,0.588803
-0.281879,-0.746507,-0.672158
-0.281879,-0.611724,0.782971
-0.281879,-0.525586,0.841113
-0.281879,-0.433557,0.888923
-0.281879,-0.33682,0.925406
-0.281879,-0.237029,0.950669
-0.281879,-0.135738,0.965827
-0.281879,-0.033954,0.97232
-0.281879,0.067902,0.971043
-0.281879,0.169592,0.961805
-0.281879,0.296509,-0.91256
-0.281879,0.369491,0.914521
-0.281879,0.464829,0.874216
-0.281879,0.55499,0.822807
-0.281879,0.63903,0.761566
-0.281879,0.764989,0.641902
-0.281879,0.810418,0.588803
-0.281879,0.872691,0.503849
-0.281879,0.951674,-0.346381
-0.281879,0.981387,0.281408
-0.281879,1.016114,-0.071054
-0.281879,1.000293,0.212619
-0.201342,-1.020187,0.071338
-0.201342,-1.019404,-0.035598
-0.201342,-0.964024,-0.31323
-0.201342,-0.952235,-0.346585
-0.201342,-0.909977,0.443826
-0.201342,-0.85308,0.533063
-0.201342,-0.788336,0.615916
-0.201342,-0.668018,-0.741909
-0.201342,-0.583941,0.803726
-0.201342,-0.49573,0.85863
-0.201342,-0.40193,0.90275
-0.201342,-0.303937,0.935423
-0.201342,-0.203447,0.957141
-0.201342,-0.101871,0.969239
-0.201342,0.0,0.973081
-0.201342,0.101871,0.969239
-0.201342,0.203447,0.957141
-0.201342,0.326661,-0.897493
-0.201342,0.419879,-0.86088
-0.201342,0.49573,0.85863
-0.201342,0.583941,0.803726
-0.201342,0.688324,-0.71278
-0.201342,0.788336,0.615916
-0.201342,0.853079,0.533063
-0.201342,0.924809,-0.411752
-0.201342,0.94257,0.380823
-0.201342,0.992958,-0.21106
-0.201342,1.017595,0.106954
-0.201342,1.021314,0.035665
-0.120805,-1.00091,-0.176487
-0.120805,-1.013907,0.142495
-0.120805,-0.984754,-0.245527
-0.120805,-0.942939,0.380972
-0.120805,-0.894268,-0.475491
-0.120805,-0.83819,-0.565366
-0.120805,-0.765522,0.642349
-0.120805,-0.639515,0.762144
-0.120805,-0.555441,0.823475
-0.120805,-0.465222,0.874955
-0.120805,-0.369802,0.915293
-0.120805,-0.26946,-0.939717
-0.120805,-0.169721,0.962536
-0.120805,-0.067951,0.971745
-0.120805,0.033978,0.973016
-0.120805,0.135839,0.966546
-0.120805,0.237217,0.951424
-0.120805,0.356072,-0.881308
-0.120805,0.448597,-0.843688
-0.120805,0.52602,0.841808
-0.120805,0.612199,0.783579
-0.120805,0.740996,-0.667195
-0.120805,0.835465,-0.563528
-0.120805,0.893032,-0.474833
-0.120805,0.910322,0.443994
-0.120805,0.974928,-0.279556
-0.120805,1.007337,-0.141572
-0.120805,1.008283,0.177787
-0.040268,-1.020164,-0.035625
-0.040268,-1.007736,-0.141628
-0.040268,-1.001507,0.212877
-0.040268,-0.970876,0.315457
-0.040268,-0.926058,-0.412307
-0.040268,-0.873653,0.504404
-0.040268,-0.811284,0.589433
-0.040268,-0.747423,-0.672982
-0.040268,-0.612437,0.783884
-0.040268,-0.52623,0.842145
-0.040268,-0.4341,0.890038
-0.040268,-0.337238,0.926552
-0.040268,-0.23731,0.9518
-0.040268,-0.135892,0.966921
-0.040268,-0.033991,0.973388
-0.040268,0.067977,0.972117
-0.040268,0.169787,0.962912
-0.040268,0.292245,-0.899438
-0.040268,0.384823,-0.864327
-0.040268,0.476932,-0.82607
-0.040268,0.5685,-0.782473
-0.040268,0.657382,-0.730097
-0.040268,0.765807,0.642588
-0.040268,0.811284,0.589433
-0.040268,0.873653,0.504404
-0.040268,0.952528,-0.346692
-0.040268,0.982574,0.281748
-0.040268,1.017218,-0.071131
-0.040268,1.020156,-0.035625
0.040268,-1.022484,0.035706
0.040268,-1.017617,-0.071159
0.040268,-0.965091,-0.313577
0.040268,-0.953296,-0.346971
0.040268,-0.911016,0.444332
0.040268,-0.854035,0.533661
0.040268,-0.789214,0.616602
0.040268,-0.668801,-0.742778
0.040268,-0.584629,0.804673
0.040268,-0.496328,0.859665
0.040268,-0.402418,0.903847
0.040268,-0.304303,0.936548
0.040268,-0.203686,0.958269
0.040268,-0.101989,0.970358
0.040268,0.0,0.974195
0.040268,0.101989,0.970358
0.040268,0.203686,0.958269
0.040268,0.321263,-0.882663
0.040268,0.413061,-0.846901
0.040268,0.50504,-0.808233
0.040268,0.596445,-0.763415
0.040268,0.684353,-0.708668
0.040268,0.789214,0.616602
0.040268,0.854035,0.533661
0.040268,0.92547,-0.412046
0.040268,0.943661,0.381264
0.040268,0.994006,-0.211283
0.040268,1.014683,0.142604
0.040268,1.02248,0.035706
0.120805,-0.994498,-0.211387
0.120805,-1.015054,0.142657
0.120805,-0.985878,-0.245807
0.120805,-0.944013,0.381406
0.120805,-0.895291,-0.476035
0.120805,-0.839151,-0.566014
0.120805,-0.766409,0.643094
0.120805,-0.64026,0.763032
0.120805,-0.556089,0.824436
0.120805,-0.465766,0.875978
0.120805,-0.370237,0.916368
0.120805,-0.269488,-0.939818
0.120805,-0.169922,0.963677
0.120805,-0.068032,0.9729
0.120805,0.034019,0.974174
0.120805,0.136001,0.967694
0.120805,0.237497,0.952548
0.120805,0.34959,-0.865266
0.120805,0.440986,-0.829373
0.120805,0.533083,-0.790328
0.120805,0.624268,-0.743973
0.120805,0.738018,-0.664515
0.120805,0.83472,-0.563026
0.120805,0.893281,-0.474966
0.120805,0.911364,0.444502
0.120805,0.975942,-0.279847
0.120805,1.008466,-0.141731
0.120805,1.002248,0.213034
0.201342,-1.021331,-0.035666
0.201342,-1.008918,-0.141794
0.201342,-1.002596,0.213108
0.201342,-0.971943,0.315804
0.201342,-0.927123,-0.412782
0.201342,-0.874674,0.504993
0.201342,-0.812254,0.590137
0.201342,-0.748252,-0.673729
0.201342,-0.613148,0.784794
0.201342,-0.526827,0.843099
0.201342,-0.434589,0.891039
0.201342,-0.337622,0.927609
0.201342,-0.237589,0.952917
0.201342,-0.136056,0.968091
0.201342,-0.034033,0.974587
0.201342,0.06806,0.97331
0.201342,0.169991,0.964066
0.201342,0.286815,-0.882725
0.201342,0.377431,-0.847724
0.201342,0.468829,-0.812036
0.201342,0.561201,-0.772427
0.201342,0.651972,-0.724088
0.201342,0.766726,0.64336
0.201342,0.812254,0.590137
0.201342,0.874674,0.504993
0.201342,0.953418,-0.347016
0.201342,0.983647,0.282056
0.201342,1.018386,-0.071212
0.201342,1.021319,-0.035665
0.281879,-1.023615,0.035745
0.281879,-1.018809,-0.071242
0.281879,-0.966255,-0.313955
0.281879,-0.954432,-0.347385
0.281879,-0.912055,0.444839
0.281879,-0.855065,0.534304
0.281879,-0.790191,0.617365
0.281879,-0.669544,-0.743604
0.281879,-0.585291,0.805584
0.281879,-0.496867,0.860598
0.281879,-0.402853,0.904822
0.281879,-0.304643,0.937596
0.281879,-0.203928,0.959406
0.281879,-0.102116,0.971569
0.281879,0.0,0.975436
0.281879,0.102116,0.971569
0.281879,0.203928,0.959406
0.281879,0.314915,-0.865221
0.281879,0.405056,-0.830487
0.281879,0.496825,-0.795087
0.281879,0.589488,-0.75451
0.281879,0.679508,-0.703651
0.281879,0.790192,0.617365
0.281879,0.855065,0.534304
0.281879,0.926086,-0.41232
0.281879,0.944695,0.381682
0.281879,0.995171,-0.21153
0.281879,1.015753,0.142755
0.281879,1.02361,0.035745
0.362416,-1.020204,0.107228
0.362416,-1.016082,0.142801
0.362416,-0.987116,-0.246116
0.362416,-0.945023,0.381814
0.362416,-0.896271,-0.476556
0.362416,-0.818877,-0.594949
0.362416,-0.767386,0.643913
0.362416,-0.641011,0.763927
0.362416,-0.556691,0.825329
0.362416,-0.466245,0.87688
0.362416,-0.370622,0.917322
0.362416,-0.269504,-0.939872
0.362416,-0.170129,0.96485
0.362416,-0.06812,0.974159
0.362416,0.034063,0.975446
0.362416,0.13617,0.968902
0.362416,0.23777,0.953643
0.362416,0.342588,-0.847936
0.362416,0.432767,-0.813917
0.362416,0.525172,-0.7786
0.362416,0.617965,-0.736463
0.362416,0.734633,-0.661467
0.362416,0.833735,-0.562361
0.362416,0.893425,-0.475042
0.362416,0.912398,0.445006
0.362416,0.977051,-0.280165
0.362416,1.009688,-0.141902
0.362416,0.99452,0.247962
0.442953,-1.02251,-0.035707
0.442953,-1.003737,-0.176986
0.442953,-1.00354,0.213309
0.442953,-0.972891,0.316112
0.442953,-0.928195,-0.413259
0.442953,-0.875734,0.505605
0.442953,-0.813307,0.590902
0.442953,-0.748979,-0.674384
0.442953,-0.613841,0.78568
0.442953,-0.527363,0.843958
0.442953,-0.435011,0.891905
0.442953,-0.337965,0.928552
0.442953,-0.237858,0.953997
0.442953,-0.136228,0.969313
0.442953,-0.034079,0.975891
0.442953,0.06815,0.974597
0.442953,0.170199,0.965244
0.442953,0.28146,-0.866246
0.442953,0.370162,-0.831397
0.442953,0.460861,-0.798234
0.442953,0.553995,-0.762509
0.442953,0.646575,-0.718094
0.442953,0.767728,0.6442
0.442953,0.813308,0.590903
0.442953,0.875734,0.505605
0.442953,0.954369,-0.347362
0.442953,0.984586,0.282325
0.442953,1.019594,-0.071297
0.442953,1.024091,0.0
0.52349,-1.024472,0.0
0.52349,-1.010624,-0.142034
0.52349,-0.967491,-0.314357
0.52349,-0.942647,-0.380854
0.52349,-0.913073,0.445335
0.52349,-0.8605,-0.5377
0.52349,-0.791247,0.61819
0.52349,-0.670235,-0.744371
0.52349,-0.585913,0.80644
0.52349,-0.497336,0.861411
0.52349,-0.403225,0.905657
0.52349,-0.304952,0.938546
0.52349,-0.204167,0.960529
0.52349,-0.10225,0.972847
0.52349,0.0,0.976776
0.52349,0.10225,0.972847
0.52349,0.204167,0.960529
0.52349,0.3093,-0.849794
0.52349,0.39799,-0.816
0.52349,0.489573,-0.783481
0.52349,0.583323,-0.746619
0.52349,0.675177,-0.699166
0.52349,0.791247,0.61819
0.52349,0.856146,0.534979
0.52349,0.926748,-0.412615
0.52349,0.966858,-0.314151
0.52349,0.996438,-0.211799
0.52349,1.003819,0.213368
0.52349,1.02349,0.071569
0.604027,-1.02381,0.071592
0.604027,-1.016971,0.142926
0.604027,-0.98844,-0.246446
0.604027,-0.945948,0.382188
0.604027,-0.897189,-0.477044
0.604027,-0.819578,-0.595458
0.604027,-0.768429,0.644788
0.604027,-0.641753,0.764811
0.604027,-0.557236,0.826136
0.604027,-0.46665,0.877642
0.604027,-0.370952,0.918137
0.604027,-0.269587,-0.940162
0.604027,-0.170337,0.96603
0.604027,-0.068213,0.975493
0.604027,0.034111,0.976805
0.604027,0.136345,0.970143
0.604027,0.23803,0.954686
0.604027,0.337154,-0.834486
0.604027,0.426404,-0.801949
0.604027,0.519047,-0.769518
0.604027,0.613072,-0.73063
0.604027,0.731989,-0.659086
0.604027,0.833011,-0.561873
0.604027,0.893679,-0.475177
0.604027,0.94166,-0.380455
0.604027,0.988134,-0.24637
0.604027,1.010983,-0.142084
0.604027,1.02041,-0.071354
0.684564,-1.020852,-0.071385
0.684564,-0.997541,-0.212034
0.684564,-1.00432,0.213475
0.684564,-0.973701,0.316375
0.684564,-0.913948,-0.445762
0.684564,-0.876807,0.506224
0.684564,-0.814417,0.591709
0.684564,-0.749589,-0.674933
0.684564,-0.668779,0.742754
0.684564,-0.586298,0.80697
0.684564,-0.497605,0.861877
0.684564,-0.403434,0.906128
0.684564,-0.305137,0.939115
0.684564,-0.204321,0.961257
0.684564,-0.102342,0.973722
0.684564,0.0,0.97771
0.684564,0.102342,0.973722
0.684564,0.204321,0.961257
0.684564,0.306964,-0.843377
0.684564,0.395066,-0.810005
0.684564,0.486582,-0.778695
0.684564,0.580786,-0.743372
0.684564,0.673401,-0.697327
0.684564,0.720215,0.695503
0.684564,0.832919,-0.561811
0.684564,0.893827,-0.475256
0.684564,0.941983,-0.380586
0.684564,0.988577,-0.24648
0.684564,1.011426,-0.142147
0.684564,1.020818,-0.071383
0.765101,-1.02126,-0.071413
0.765101,-0.998006,-0.212133
0.765101,-1.00454,0.213522
0.765101,-0.973937,0.316451
0.765101,-0.914259,-0.445914
0.765101,-0.877162,0.50643
0.765101,-0.814794,0.591983
0.765101,-0.749764,-0.675091
0.765101,-0.669045,0.74305
0.765101,-0.58648,0.807221
0.765101,-0.497726,0.862086
0.765101,-0.403527,0.906336
0.765101,-0.305222,0.939378
0.765101,-0.204397,0.961612
0.765101,-0.102389,0.974163
0.765101,0.0,0.978186
0.765101,0.102389,0.974163
0.765101,0.204397,0.961613
0.765101,0.306405,-0.841841
