0.362416 -0.554329 -0.821826
0.362416 -0.524140 -0.838799
0.362416 -0.493530 -0.854820
0.362416 -0.462538 -0.869907
0.362416 -0.431187 -0.884065
0.362416 -0.399496 -0.897282
0.362416 -0.367474 -0.909530
0.362416 -0.335129 -0.920759
0.362416 -0.302468 -0.930901
0.362416 -0.269504 -0.939872
0.362416 -0.236256 -0.947571
0.362416 -0.202756 -0.953894
0.362416 -0.169050 -0.958732
0.362416 -0.135198 -0.961986
0.362416 -0.101276 -0.963572
0.362416 -0.067370 -0.963434
0.362416 -0.033578 -0.961547
0.362416 0.000000 -0.957931
0.362416 0.033267 -0.952651
0.362416 0.066138 -0.945821
0.362416 0.098546 -0.937599
0.362416 0.130448 -0.928183
0.362416 0.161833 -0.917802
0.362416 0.192725 -0.906699
0.362416 0.223178 -0.895117
0.362416 0.253277 -0.883282
0.362416 0.283131 -0.871388
0.362416 0.312860 -0.859577
0.362416 0.342588 -0.847936
0.362416 0.372428 -0.836486
0.362416 0.402468 -0.825182
0.362416 0.432767 -0.813917
0.362416 0.463343 -0.802534
0.362416 0.494169 -0.790835
0.362416 0.525172 -0.778600
0.362416 0.556242 -0.765601
0.362416 0.587230 -0.751620
0.362416 0.617965 -0.736463
0.362416 0.648260 -0.719966
0.362416 0.677924 -0.702010
0.362416 0.706771 -0.682521
0.362416 0.734633 -0.661467
0.362416 0.761364 -0.638861
0.362416 0.786846 -0.614751
0.362416 0.810989 -0.589218
0.362416 0.833735 -0.562361
0.362416 0.855055 -0.534298
0.362416 0.874946 -0.505150
0.362416 0.893425 -0.475042
0.362416 0.910526 -0.444093
0.362416 0.926296 -0.412413
0.362416 0.940784 -0.380101
0.362416 0.954043 -0.347243
0.362416 0.966119 -0.313911
0.362416 0.977051 -0.280165
0.362416 0.986868 -0.246054
0.362416 0.995583 -0.211618
0.362416 1.003195 -0.176890
0.362416 1.009688 -0.141902
0.362416 1.015033 -0.106684
0.362416 1.019188 -0.071269
0.362416 1.022101 -0.035693
0.362416 1.023716 0.000000
0.362416 1.023975 0.035758
0.362416 1.022820 0.071523
0.362416 1.020202 0.107228
0.362416 1.016081 0.142801
0.362416 1.010432 0.178166
0.362416 1.003243 0.213246
0.362416 0.994520 0.247962
0.362416 0.984289 0.282240
0.362416 0.972590 0.316014
0.362416 0.959478 0.349222
0.362416 0.945023 0.381814
0.362416 0.929302 0.413752
0.362416 0.912398 0.445006
0.362416 0.894396 0.475559
0.362416 0.875378 0.505400
0.362416 0.855421 0.534526
0.362416 0.834592 0.562939
0.362416 0.812949 0.590642
0.362416 0.790536 0.617634
0.362416 0.767386 0.643913
0.362416 0.743521 0.669469
0.362416 0.718949 0.694281
0.362416 0.693676 0.718323
0.362416 0.667698 0.741554
0.362416 0.641011 0.763928
0.362416 0.613613 0.785389
0.362416 0.585504 0.805877
0.362416 0.556691 0.825329
0.362416 0.527192 0.843684
0.362416 0.497031 0.860884
0.362416 0.466245 0.876880
0.362416 0.434878 0.891633
0.362416 0.402984 0.905117
0.362416 0.370622 0.917322
0.362416 0.337856 0.928252
0.362416 0.304750 0.937925
0.362416 0.271368 0.946374
0.362416 0.237770 0.953643
0.362416 0.204008 0.959783
0.362416 0.170129 0.964850
0.362416 0.136170 0.968902
0.362416 0.102160 0.971989
0.362416 0.068120 0.974159
0.362416 0.034063 0.975446
0.362416 0.000000 0.975873
0.362416 -0.034063 0.975446
0.362416 -0.068120 0.974159
0.362416 -0.102160 0.971989
0.362416 -0.136170 0.968902
0.362416 -0.170129 0.964850
0.362416 -0.204008 0.959783
0.362416 -0.237770 0.953643
0.362416 -0.271368 0.946374
0.362416 -0.304750 0.937925
0.362416 -0.337856 0.928251
0.362416 -0.370622 0.917322
0.362416 -0.402984 0.905117
0.362416 -0.434878 0.891633
0.362416 -0.466245 0.876880
0.362416 -0.497031 0.860884
0.362416 -0.527192 0.843683
0.362416 -0.556691 0.825329
0.362416 -0.585504 0.805876
0.362416 -0.613613 0.785388
0.362416 -0.641011 0.763927
0.362416 -0.667698 0.741554
0.362416 -0.693676 0.718322
0.362416 -0.718949 0.694281
0.362416 -0.743520 0.669469
0.362416 -0.767386 0.643913
0.362416 -0.790536 0.617634
0.362416 -0.812948 0.590642
0.362416 -0.834592 0.562939
0.362416 -0.855420 0.534526
0.362416 -0.875378 0.505400
0.362416 -0.894396 0.475559
0.362416 -0.912398 0.445006
0.362416 -0.929302 0.413752
0.362416 -0.945023 0.381814
0.362416 -0.959478 0.349222
0.362416 -0.972590 0.316014
0.362416 -0.984289 0.282240
0.362416 -0.994520 0.247962
0.362416 -1.003243 0.213246
0.362416 -1.010432 0.178166
0.362416 -1.016082 0.142801
0.362416 -1.020204 0.107228
0.362416 -1.022823 0.071523
0.362416 -1.023980 0.035758
0.442953 -1.024101 -0.000000
0.442953 -1.022510 -0.035707
0.442953 -1.019622 -0.071299
0.442953 -1.015497 -0.106733
0.442953 -1.010186 -0.141972
0.442953 -1.003737 -0.176986
0.442953 -0.996183 -0.211745
0.442953 -0.987549 -0.246224
0.442953 -0.977846 -0.280393
0.442953 -0.967073 -0.314221
0.442953 -0.955220 -0.347672
0.442953 -0.942268 -0.380701
0.442953 -0.928195 -0.413259
0.442953 -0.912975 -0.445288
0.442953 -0.896585 -0.476723
0.442953 -0.879009 -0.507496
0.442953 -0.860236 -0.537535
0.442953 -0.840270 -0.566769
0.442953 -0.819126 -0.595130
0.442953 -0.796832 -0.622553
0.442953 -0.773431 -0.648986
0.442953 -0.748979 -0.674384
0.442953 -0.723541 -0.698715
0.442953 -0.697192 -0.721963
0.442953 -0.670011 -0.744123
0.442953 -0.642080 -0.765201
0.442953 -0.613478 -0.785216
0.442953 -0.584280 -0.804192
0.442953 -0.554553 -0.822159
0.442953 -0.524356 -0.839144
0.442953 -0.493735 -0.855173
0.442953 -0.462726 -0.870261
0.442953 -0.431355 -0.884409
0.442953 -0.399640 -0.897605
0.442953 -0.367590 -0.909816
0.442953 -0.335213 -0.920991
0.442953 -0.302519 -0.931057
0.442953 -0.269520 -0.939927
0.442953 -0.236238 -0.947498
0.442953 -0.202707 -0.953660
0.442953 -0.168975 -0.958302
0.442953 -0.135105 -0.961323
0.442953 -0.101177 -0.962636
0.442953 -0.067283 -0.962186
0.442953 -0.033522 -0.959950
0.442953 0.000000 -0.955951
0.442953 0.033184 -0.950262
0.442953 0.065941 -0.943005
0.442953 0.098204 -0.934351
0.442953 0.129932 -0.924511
0.442953 0.161115 -0.913729
0.442953 0.191782 -0.902264
0.442953 0.221995 -0.890374
0.442953 0.251849 -0.878300
0.442953 0.281460 -0.866246
0.442953 0.310962 -0.854362
0.442953 0.340489 -0.842740
0.442953 0.370162 -0.831397
0.442953 0.400080 -0.820285
0.442953 0.430306 -0.809288
0.442953 0.460861 -0.798234
0.442953 0.491717 -0.786912
0.442953 0.522801 -0.775085
0.442953 0.553995 -0.762509
0.442953 0.585146 -0.748952
0.442953 0.616071 -0.734205
0.442953 0.646575 -0.718094
0.442953 0.676458 -0.700493
0.442953 0.705527 -0.681320
0.442953 0.733607 -0.660542
0.442953 0.760544 -0.638172
0.442953 0.786217 -0.614260
0.442953 0.810535 -0.588888
0.442953 0.833437 -0.562160
0.442953 0.854895 -0.534197
0.442953 0.874904 -0.505126
0.442953 0.893485 -0.475075
0.442953 0.910673 -0.444165
0.442953 0.926515 -0.412511
0.442953 0.941063 -0.380214
0.442953 0.954369 -0.347362
0.442953 0.966483 -0.314029
0.442953 0.977443 -0.280277
0.442953 0.987279 -0.246156
0.442953 0.996005 -0.211707
0.442953 1.003622 -0.176966
0.442953 1.010113 -0.141962
0.442953 1.015451 -0.106728
0.442953 1.019594 -0.071297
0.442953 1.022492 -0.035706
0.442953 1.024091 0.000000
0.442953 1.024332 0.035770
0.442953 1.023160 0.071546
0.442953 1.020527 0.107262
0.442953 1.016394 0.142845
0.442953 1.010735 0.178220
0.442953 1.003540 0.213309
0.442953 0.994815 0.248035
0.442953 0.984586 0.282325
0.442953 0.972892 0.316112
0.442953 0.959788 0.349334
0.442953 0.945342 0.381943
0.442953 0.929631 0.413899
0.442953 0.912738 0.445172
0.442953 0.894745 0.475744
0.442953 0.875734 0.505605
0.442953 0.855781 0.534751
0.442953 0.834953 0.563183
0.442953 0.813308 0.590903
0.442953 0.790888 0.617910
0.442953 0.767728 0.644200
0.442953 0.743848 0.669764
0.442953 0.719260 0.694581
0.442953 0.693967 0.718624
0.442953 0.667969 0.741854
0.442953 0.641261 0.764225
0.442953 0.613841 0.785680
0.442953 0.585711 0.806162
0.442953 0.556880 0.825608
0.442953 0.527364 0.843958
0.442953 0.497188 0.861155
0.442953 0.466389 0.877150
0.442953 0.435011 0.891905
0.442953 0.403108 0.905396
0.442953 0.370739 0.917610
0.442953 0.337965 0.928552
0.442953 0.304853 0.938241
0.442953 0.271464 0.946709
0.442953 0.237858 0.953997
0.442953 0.204088 0.960157
0.442953 0.170199 0.965244
0.442953 0.136228 0.969313
0.442953 0.102205 0.972416
0.442953 0.068150 0.974597
0.442953 0.034079 0.975891
0.442953 0.000000 0.976320
0.442953 -0.034079 0.975891
0.442953 -0.068150 0.974597
0.442953 -0.102205 0.972416
0.442953 -0.136228 0.969313
0.442953 -0.170199 0.965244
0.442953 -0.204088 0.960157
0.442953 -0.237858 0.953997
0.442953 -0.271464 0.946709
0.442953 -0.304853 0.938241
0.442953 -0.337965 0.928552
0.442953 -0.370739 0.917610
0.442953 -0.403108 0.905396
0.442953 -0.435011 0.891905
0.442953 -0.466389 0.877150
0.442953 -0.497188 0.861155
0.442953 -0.527363 0.843958
0.442953 -0.556880 0.825608
0.442953 -0.585711 0.806162
0.442953 -0.613841 0.785680
0.442953 -0.641260 0.764224
0.442953 -0.667968 0.741854
0.442953 -0.693967 0.718624
0.442953 -0.719260 0.694581
0.442953 -0.743848 0.669764
0.442953 -0.767728 0.644200
0.442953 -0.790888 0.617909
0.442953 -0.813307 0.590902
0.442953 -0.834953 0.563183
0.442953 -0.855781 0.534751
0.442953 -0.875734 0.505605
0.442953 -0.894745 0.475744
0.442953 -0.912737 0.445172
0.442953 -0.929631 0.413898
0.442953 -0.945342 0.381943
0.442953 -0.959788 0.349334
0.442953 -0.972891 0.316112
0.442953 -0.984586 0.282325
0.442953 -0.994816 0.248035
0.442953 -1.003540 0.213309
0.442953 -1.010735 0.178220
0.442953 -1.016395 0.142845
0.442953 -1.020529 0.107262
0.442953 -1.023164 0.071547
0.442953 -1.024338 0.035771
0.523490 -1.024472 -0.000000
0.523490 -1.022900 -0.035720
0.523490 -1.020032 -0.071328
0.523490 -1.015922 -0.106778
0.523490 -1.010624 -0.142034
0.523490 -1.004181 -0.177064
0.523490 -0.996629 -0.211840
0.523490 -0.987991 -0.246334
0.523490 -0.978278 -0.280517
0.523490 -0.967491 -0.314357
0.523490 -0.955620 -0.347817
0.523490 -0.942647 -0.380854
0.523490 -0.928550 -0.413417
0.523490 -0.913305 -0.445449
0.523490 -0.896892 -0.476886
0.523490 -0.879292 -0.507660
0.523490 -0.860500 -0.537700
0.523490 -0.840517 -0.566936
0.523490 -0.819359 -0.595299
0.523490 -0.797056 -0.622729
0.523490 -0.773650 -0.649169
0.523490 -0.749196 -0.674579
0.523490 -0.723758 -0.698925
0.523490 -0.697412 -0.722191
0.523490 -0.670235 -0.744371
0.523490 -0.642307 -0.765471
0.523490 -0.613707 -0.785509
0.523490 -0.584509 -0.804507
0.523490 -0.554779 -0.822494
0.523490 -0.524575 -0.839496
0.523490 -0.493944 -0.855536
0.523490 -0.462920 -0.870626
0.523490 -0.431530 -0.884768
0.523490 -0.399791 -0.897945
0.523490 -0.367714 -0.910123
0.523490 -0.335306 -0.921247
0.523490 -0.302579 -0.931243
0.523490 -0.269546 -0.940020
0.523490 -0.236231 -0.947472
0.523490 -0.202670 -0.953487
0.523490 -0.168913 -0.957951
0.523490 -0.135026 -0.960760
0.523490 -0.101092 -0.961829
0.523490 -0.067207 -0.961099
0.523490 -0.033473 -0.958552
0.523490 0.000000 -0.954214
0.523490 0.033111 -0.948163
0.523490 0.065768 -0.940529
0.523490 0.097904 -0.931494
0.523490 0.129478 -0.921283
0.523490 0.160484 -0.910150
0.523490 0.190954 -0.898369
0.523490 0.220957 -0.886212
0.523490 0.250596 -0.873931
0.523490 0.279996 -0.861738
0.523490 0.309300 -0.849794
0.523490 0.338650 -0.838189
0.523490 0.368179 -0.826943
0.523490 0.397990 -0.816000
0.523490 0.428153 -0.805238
0.523490 0.458689 -0.794473
0.523490 0.489573 -0.783481
0.523490 0.520728 -0.772011
0.523490 0.552031 -0.759806
0.523490 0.583323 -0.746619
0.523490 0.614414 -0.732230
0.523490 0.645101 -0.716457
0.523490 0.675177 -0.699166
0.523490 0.704440 -0.680270
0.523490 0.732710 -0.659735
0.523490 0.759830 -0.637573
0.523490 0.785673 -0.613835
0.523490 0.810146 -0.588606
0.523490 0.833189 -0.561993
0.523490 0.854771 -0.534120
0.523490 0.874891 -0.505118
0.523490 0.893567 -0.475118
0.523490 0.910837 -0.444245
0.523490 0.926748 -0.412615
0.523490 0.941354 -0.380332
0.523490 0.954707 -0.347485
0.523490 0.966858 -0.314151
0.523490 0.977847 -0.280393
0.523490 0.987701 -0.246262
0.523490 0.996438 -0.211799
0.523490 1.004057 -0.177042
0.523490 1.010545 -0.142023
0.523490 1.015873 -0.106773
0.523490 1.020001 -0.071325
0.523490 1.022882 -0.035720
0.523490 1.024461 0.000000
0.523490 1.024681 0.035783
0.523490 1.023490 0.071569
0.523490 1.020839 0.107294
0.523490 1.016690 0.142887
0.523490 1.011020 0.178270
0.523490 1.003819 0.213368
0.523490 0.995093 0.248104
0.523490 0.984866 0.282406
0.523490 0.973178 0.316205
0.523490 0.960084 0.349442
0.523490 0.945651 0.382068
0.523490 0.929954 0.414042
0.523490 0.913073 0.445336
0.523490 0.895093 0.475929
0.523490 0.876092 0.505812
0.523490 0.856146 0.534979
0.523490 0.835321 0.563431
0.523490 0.813673 0.591168
0.523490 0.791247 0.618190
0.523490 0.768076 0.644493
0.523490 0.744182 0.670064
0.523490 0.719575 0.694886
0.523490 0.694261 0.718929
0.523490 0.668240 0.742156
0.523490 0.641508 0.764520
0.523490 0.614065 0.785968
0.523490 0.585913 0.806441
0.523490 0.557062 0.825878
0.523490 0.527527 0.844220
0.523490 0.497336 0.861411
0.523490 0.466524 0.877404
0.523490 0.435136 0.892161
0.523490 0.403225 0.905658
0.523490 0.370848 0.917882
0.523490 0.338070 0.928839
0.523490 0.304952 0.938546
0.523490 0.271558 0.947034
0.523490 0.237945 0.954345
0.523490 0.204167 0.960529
0.523490 0.170268 0.965638
0.523490 0.136286 0.969727
0.523490 0.102250 0.972847
0.523490 0.068182 0.975042
0.523490 0.034095 0.976344
0.523490 0.000000 0.976776
0.523490 -0.034095 0.976344
0.523490 -0.068182 0.975042
0.523490 -0.102250 0.972847
0.523490 -0.136286 0.969727
0.523490 -0.170268 0.965638
0.523490 -0.204167 0.960529
0.523490 -0.237945 0.954345
0.523490 -0.271558 0.947034
0.523490 -0.304952 0.938546
0.523490 -0.338070 0.928839
0.523490 -0.370848 0.917882
0.523490 -0.403225 0.905657
0.523490 -0.435136 0.892161
0.523490 -0.466524 0.877404
0.523490 -0.497336 0.861411
0.523490 -0.527527 0.844220
0.523490 -0.557061 0.825877
0.523490 -0.585913 0.806440
0.523490 -0.614065 0.785967
0.523490 -0.641508 0.764519
0.523490 -0.668239 0.742155
0.523490 -0.694261 0.718928
0.523490 -0.719574 0.694885
0.523490 -0.744181 0.670063
0.523490 -0.768076 0.644492
0.523490 -0.791247 0.618190
0.523490 -0.813672 0.591168
0.523490 -0.835320 0.563430
0.523490 -0.856145 0.534979
0.523490 -0.876091 0.505811
0.523490 -0.895092 0.475929
0.523490 -0.913073 0.445335
0.523490 -0.929953 0.414042
0.523490 -0.945650 0.382068
0.523490 -0.960084 0.349442
0.523490 -0.973178 0.316205
0.523490 -0.984865 0.282406
0.523490 -0.995093 0.248104
0.523490 -1.003819 0.213368
0.523490 -1.011021 0.178270
0.523490 -1.016692 0.142887
0.523490 -1.020841 0.107295
0.523490 -1.023493 0.071570
0.523490 -1.024687 0.035783
0.604027 -1.024836 -0.000000
0.604027 -1.023289 -0.035734
0.604027 -1.020442 -0.071356
0.604027 -1.016351 -0.106823
0.604027 -1.011066 -0.142096
0.604027 -1.004632 -0.177144
0.604027 -0.997082 -0.211936
0.604027 -0.988440 -0.246446
0.604027 -0.978717 -0.280643
0.604027 -0.967914 -0.314494
0.604027 -0.956022 -0.347964
0.604027 -0.943025 -0.381007
0.604027 -0.928902 -0.413574
0.604027 -0.913630 -0.445607
0.604027 -0.897189 -0.477044
0.604027 -0.879565 -0.507817
0.604027 -0.860751 -0.537857
0.604027 -0.840749 -0.567093
0.604027 -0.819578 -0.595458
0.604027 -0.797266 -0.622892
0.604027 -0.773854 -0.649341
0.604027 -0.749399 -0.674762
0.604027 -0.723964 -0.699124
0.604027 -0.697622 -0.722409
0.604027 -0.670451 -0.744611
0.604027 -0.642529 -0.765736
0.604027 -0.613933 -0.785799
0.604027 -0.584738 -0.804822
0.604027 -0.555007 -0.822832
0.604027 -0.524799 -0.839854
0.604027 -0.494158 -0.855907
0.604027 -0.463121 -0.871004
0.604027 -0.431713 -0.885143
0.604027 -0.399951 -0.898305
0.604027 -0.367847 -0.910454
0.604027 -0.335411 -0.921534
0.604027 -0.302652 -0.931467
0.604027 -0.269587 -0.940162
0.604027 -0.236241 -0.947510
0.604027 -0.202651 -0.953396
0.604027 -0.168869 -0.957706
0.604027 -0.134966 -0.960334
0.604027 -0.101026 -0.961194
0.604027 -0.067146 -0.960228
0.604027 -0.033434 -0.957420
0.604027 0.000000 -0.952799
0.604027 0.033051 -0.946448
0.604027 0.065627 -0.938505
0.604027 0.097658 -0.929158
0.604027 0.129107 -0.918642
0.604027 0.159968 -0.907224
0.604027 0.190278 -0.895187
0.604027 0.220110 -0.882814
0.604027 0.249574 -0.870367
0.604027 0.278802 -0.858065
0.604027 0.307945 -0.846073
0.604027 0.337154 -0.834486
0.604027 0.366566 -0.823321
0.604027 0.396292 -0.812518
0.604027 0.426404 -0.801949
0.604027 0.456927 -0.791420
0.604027 0.487834 -0.780697
0.604027 0.519047 -0.769518
0.604027 0.550439 -0.757614
0.604027 0.581845 -0.744728
0.604027 0.613072 -0.730630
0.604027 0.643908 -0.715132
0.604027 0.674140 -0.698092
0.604027 0.703563 -0.679423
0.604027 0.731989 -0.659086
0.604027 0.759259 -0.637094
0.604027 0.785244 -0.613500
0.604027 0.809848 -0.588389
0.604027 0.833011 -0.561873
0.604027 0.854701 -0.534076
0.604027 0.874917 -0.505134
0.604027 0.893679 -0.475177
0.604027 0.911023 -0.444336
0.604027 0.926999 -0.412727
0.604027 0.941660 -0.380455
0.604027 0.955059 -0.347613
0.604027 0.967246 -0.314277
0.604027 0.978261 -0.280512
0.604027 0.988134 -0.246370
0.604027 0.996880 -0.211893
0.604027 1.004501 -0.177121
0.604027 1.010983 -0.142084
0.604027 1.016298 -0.106817
0.604027 1.020410 -0.071354
0.604027 1.023269 -0.035733
0.604027 1.024825 0.000000
0.604027 1.025021 0.035795
0.604027 1.023807 0.071592
0.604027 1.021135 0.107326
0.604027 1.016970 0.142926
0.604027 1.011288 0.178317
0.604027 1.004079 0.213424
0.604027 0.995351 0.248169
0.604027 0.985128 0.282481
0.604027 0.973448 0.316293
0.604027 0.960367 0.349545
0.604027 0.945949 0.382188
0.604027 0.930268 0.414182
0.604027 0.913404 0.445497
0.604027 0.895439 0.476113
0.604027 0.876451 0.506019
0.604027 0.856513 0.535209
0.604027 0.835693 0.563682
0.604027 0.814044 0.591438
0.604027 0.791613 0.618476
0.604027 0.768430 0.644790
0.604027 0.744520 0.670369
0.604027 0.719894 0.695193
0.604027 0.694557 0.719235
0.604027 0.668511 0.742457
0.604027 0.641754 0.764812
0.604027 0.614285 0.786249
0.604027 0.586110 0.806711
0.604027 0.557236 0.826137
0.604027 0.527683 0.844469
0.604027 0.497475 0.861653
0.604027 0.466651 0.877642
0.604027 0.435253 0.892400
0.604027 0.403334 0.905902
0.604027 0.370952 0.918138
0.604027 0.338168 0.929110
0.604027 0.305047 0.938837
0.604027 0.271648 0.947349
0.604027 0.238030 0.954686
0.604027 0.204245 0.960895
0.604027 0.170337 0.966030
0.604027 0.136345 0.970143
0.604027 0.102296 0.973283
0.604027 0.068213 0.975493
0.604027 0.034111 0.976805
0.604027 0.000000 0.977240
0.604027 -0.034111 0.976805
0.604027 -0.068213 0.975493
0.604027 -0.102296 0.973283
0.604027 -0.136345 0.970143
0.604027 -0.170337 0.966030
0.604027 -0.204245 0.960895
0.604027 -0.238030 0.954685
0.604027 -0.271648 0.947349
0.604027 -0.305047 0.938837
0.604027 -0.338168 0.929110
0.604027 -0.370952 0.918137
0.604027 -0.403333 0.905902
0.604027 -0.435252 0.892400
0.604027 -0.466650 0.877642
0.604027 -0.497475 0.861652
0.604027 -0.527682 0.844468
0.604027 -0.557236 0.826136
0.604027 -0.586109 0.806710
0.604027 -0.614285 0.786248
0.604027 -0.641753 0.764811
0.604027 -0.668510 0.742455
0.604027 -0.694556 0.719234
0.604027 -0.719892 0.695192
0.604027 -0.744518 0.670367
0.604027 -0.768429 0.644788
0.604027 -0.791611 0.618474
0.604027 -0.814043 0.591437
0.604027 -0.835691 0.563681
0.604027 -0.856512 0.535208
0.604027 -0.876449 0.506018
0.604027 -0.895437 0.476113
0.604027 -0.913403 0.445496
0.604027 -0.930267 0.414181
0.604027 -0.945948 0.382188
0.604027 -0.960366 0.349545
0.604027 -0.973448 0.316292
0.604027 -0.985127 0.282481
0.604027 -0.995351 0.248169
0.604027 -1.004079 0.213424
0.604027 -1.011288 0.178317
0.604027 -1.016971 0.142926
0.604027 -1.021137 0.107326
0.604027 -1.023810 0.071592
0.604027 -1.025028 0.035795
0.684564 -1.025194 -0.000000
0.684564 -1.023674 -0.035747
0.684564 -1.020852 -0.071385
0.684564 -1.016781 -0.106868
0.684564 -1.011513 -0.142159
0.684564 -1.005088 -0.177224
0.684564 -0.997541 -0.212034
0.684564 -0.988895 -0.246559
0.684564 -0.979161 -0.280770
0.684564 -0.968341 -0.314633
0.684564 -0.956426 -0.348111
0.684564 -0.943402 -0.381159
0.684564 -0.929250 -0.413729
0.684564 -0.913948 -0.445762
0.684564 -0.897478 -0.477198
0.684564 -0.879827 -0.507968
0.684564 -0.860988 -0.538005
0.684564 -0.840967 -0.567240
0.684564 -0.819781 -0.595606
0.684564 -0.797459 -0.623044
0.684564 -0.774044 -0.649500
0.684564 -0.749589 -0.674933
0.684564 -0.724158 -0.699311
0.684564 -0.697823 -0.722616
0.684564 -0.670659 -0.744842
0.684564 -0.642745 -0.765994
0.684564 -0.614157 -0.786085
0.684564 -0.584966 -0.805137
0.684564 -0.555237 -0.823173
0.684564 -0.525026 -0.840217
0.684564 -0.494378 -0.856288
0.684564 -0.463329 -0.871394
0.684564 -0.431903 -0.885533
0.684564 -0.400120 -0.898685
0.684564 -0.367992 -0.910812
0.684564 -0.335528 -0.921855
0.684564 -0.302740 -0.931737
0.684564 -0.269645 -0.940362
0.684564 -0.236269 -0.947624
0.684564 -0.202653 -0.953405
0.684564 -0.168849 -0.957591
0.684564 -0.134930 -0.960075
0.684564 -0.100981 -0.960771
0.684564 -0.067103 -0.959623
0.684564 -0.033406 -0.956615
0.684564 0.000000 -0.951780
0.684564 0.033007 -0.945205
0.684564 0.065524 -0.937031
0.684564 0.097479 -0.927454
0.684564 0.128836 -0.916716
0.684564 0.159592 -0.905090
0.684564 0.189785 -0.892869
0.684564 0.219494 -0.880341
0.684564 0.248831 -0.867776
0.684564 0.277936 -0.855399
0.684564 0.306964 -0.843377
0.684564 0.336071 -0.831806
0.684564 0.365400 -0.820703
0.684564 0.395066 -0.810005
0.684564 0.425143 -0.799577
0.684564 0.455657 -0.789221
0.684564 0.486582 -0.778695
0.684564 0.517838 -0.767727
0.684564 0.549296 -0.756040
0.684564 0.580786 -0.743372
0.684564 0.612110 -0.729485
0.684564 0.643055 -0.714185
0.684564 0.673401 -0.697327
0.684564 0.702940 -0.678822
0.684564 0.731483 -0.658630
0.684564 0.758865 -0.636764
0.684564 0.784957 -0.613276
0.684564 0.809663 -0.588254
0.684564 0.832919 -0.561811
0.684564 0.854697 -0.534074
0.684564 0.874992 -0.505177
0.684564 0.893827 -0.475256
0.684564 0.911237 -0.444440
0.684564 0.927271 -0.412848
0.684564 0.941983 -0.380586
0.684564 0.955424 -0.347746
0.684564 0.967646 -0.314407
0.684564 0.978687 -0.280634
0.684564 0.988577 -0.246480
0.684564 0.997332 -0.211989
0.684564 1.004952 -0.177200
0.684564 1.011426 -0.142147
0.684564 1.016727 -0.106862
0.684564 1.020818 -0.071383
0.684564 1.023653 -0.035747
0.684564 1.025182 0.000000
0.684564 1.025352 0.035806
0.684564 1.024111 0.071613
0.684564 1.021416 0.107355
0.684564 1.017232 0.142963
0.684564 1.011536 0.178361
0.684564 1.004320 0.213475
0.684564 0.995591 0.248229
0.684564 0.985372 0.282551
0.684564 0.973703 0.316375
0.684564 0.960635 0.349643
0.684564 0.946235 0.382304
0.684564 0.930574 0.414318
0.684564 0.913730 0.445656
0.684564 0.895782 0.476296
0.684564 0.876809 0.506226
0.684564 0.856883 0.535440
0.684564 0.836068 0.563935
0.684564 0.814420 0.591711
0.684564 0.791983 0.618765
0.684564 0.768789 0.645091
0.684564 0.744862 0.670677
0.684564 0.720215 0.695503
0.684564 0.694854 0.719542
0.684564 0.668781 0.742757
0.684564 0.641996 0.765101
0.684564 0.614501 0.786525
0.684564 0.586300 0.806972
0.684564 0.557403 0.826384
0.684564 0.527830 0.844704
0.684564 0.497606 0.861879
0.684564 0.466768 0.877863
0.684564 0.435360 0.892621
0.684564 0.403435 0.906129
0.684564 0.371048 0.918376
0.684564 0.338261 0.929366
0.684564 0.305137 0.939115
0.684564 0.271735 0.947653
0.684564 0.238113 0.955018
0.684564 0.204321 0.961257
0.684564 0.170406 0.966421
0.684564 0.136403 0.970560
0.684564 0.102342 0.973722
0.684564 0.068245 0.975949
0.684564 0.034127 0.977271
0.684564 0.000000 0.977710
0.684564 -0.034127 0.977271
0.684564 -0.068245 0.975949
0.684564 -0.102342 0.973722
0.684564 -0.136403 0.970560
0.684564 -0.170406 0.966421
0.684564 -0.204321 0.961257
0.684564 -0.238113 0.955018
0.684564 -0.271735 0.947652
0.684564 -0.305137 0.939115
0.684564 -0.338261 0.929365
0.684564 -0.371048 0.918375
0.684564 -0.403434 0.906128
0.684564 -0.435360 0.892620
0.684564 -0.466767 0.877862
0.684564 -0.497605 0.861877
0.684564 -0.527829 0.844702
0.684564 -0.557402 0.826382
0.684564 -0.586298 0.806970
0.684564 -0.614499 0.786523
0.684564 -0.641994 0.765099
0.684564 -0.668779 0.742754
0.684564 -0.694851 0.719540
0.684564 -0.720212 0.695501
0.684564 -0.744859 0.670674
0.684564 -0.768786 0.645088
0.684564 -0.791980 0.618763
0.684564 -0.814417 0.591709
0.684564 -0.836065 0.563933
0.684564 -0.856880 0.535438
0.684564 -0.876807 0.506224
0.684564 -0.895780 0.476295
0.684564 -0.913727 0.445655
0.684564 -0.930572 0.414317
0.684564 -0.946233 0.382303
0.684564 -0.960634 0.349642
0.684564 -0.973701 0.316375
0.684564 -0.985371 0.282551
0.684564 -0.995590 0.248228
0.684564 -1.004320 0.213475
0.684564 -1.011537 0.178361
0.684564 -1.017233 0.142963
0.684564 -1.021418 0.107355
0.684564 -1.024115 0.071613
0.684564 -1.025358 0.035806
0.765101 -1.025545 -0.000000
0.765101 -1.024054 -0.035761
0.765101 -1.021260 -0.071413
0.765101 -1.017213 -0.106913
0.765101 -1.011962 -0.142222
0.765101 -1.005549 -0.177305
0.765101 -0.998006 -0.212133
0.765101 -0.989355 -0.246674
0.765101 -0.979609 -0.280898
0.765101 -0.968770 -0.314773
0.765101 -0.956831 -0.348258
0.765101 -0.943778 -0.381311
0.765101 -0.929594 -0.413882
0.765101 -0.914259 -0.445914
0.765101 -0.897757 -0.477346
0.765101 -0.880076 -0.508112
0.765101 -0.861212 -0.538145
0.765101 -0.841170 -0.567376
0.765101 -0.819969 -0.595742
0.765101 -0.797637 -0.623183
0.765101 -0.774218 -0.649646
0.765101 -0.749764 -0.675091
0.765101 -0.724339 -0.699486
0.765101 -0.698012 -0.722813
0.765101 -0.670859 -0.745065
0.765101 -0.642956 -0.766245
0.765101 -0.614377 -0.786367
0.765101 -0.585193 -0.805449
0.765101 -0.555468 -0.823515
0.765101 -0.525256 -0.840585
0.765101 -0.494602 -0.856676
0.765101 -0.463542 -0.871796
0.765101 -0.432102 -0.885941
0.765101 -0.400300 -0.899088
0.765101 -0.368148 -0.911199
0.765101 -0.335658 -0.922214
0.765101 -0.302843 -0.932056
0.765101 -0.269721 -0.940629
0.765101 -0.236319 -0.947825
0.765101 -0.202679 -0.953529
0.765101 -0.168855 -0.957624
0.765101 -0.134920 -0.960006
0.765101 -0.100962 -0.960590
0.765101 -0.067082 -0.959320
0.765101 -0.033391 -0.956182
0.765101 0.000000 -0.951211
0.765101 0.032983 -0.944496
0.765101 0.065464 -0.936183
0.765101 0.097376 -0.926469
0.765101 0.128679 -0.915601
0.765101 0.159374 -0.903856
0.765101 0.189501 -0.891530
0.765101 0.219139 -0.878918
0.765101 0.248405 -0.866290
0.765101 0.277441 -0.853875
0.765101 0.306405 -0.841841
0.765101 0.335457 -0.830285
0.765101 0.364741 -0.819222
0.765101 0.394375 -0.808589
0.765101 0.424434 -0.798245
0.765101 0.454947 -0.787991
0.765101 0.485884 -0.777577
0.765101 0.517166 -0.766730
0.765101 0.548661 -0.755168
0.765101 0.580200 -0.742622
0.765101 0.611581 -0.728854
0.765101 0.642588 -0.713667
0.765101 0.673001 -0.696913
0.765101 0.702609 -0.678502
0.765101 0.731221 -0.658394
0.765101 0.758673 -0.636602
0.765101 0.784833 -0.613179
0.765101 0.809606 -0.588213
0.765101 0.832928 -0.561817
0.765101 0.854768 -0.534119
0.765101 0.875125 -0.505254
0.765101 0.894018 -0.475358
0.765101 0.911483 -0.444560
0.765101 0.927567 -0.412980
0.765101 0.942324 -0.380724
0.765101 0.955805 -0.347885
0.765101 0.968059 -0.314541
0.765101 0.979124 -0.280759
0.765101 0.989030 -0.246593
0.765101 0.997791 -0.212087
0.765101 1.005410 -0.177281
0.765101 1.011874 -0.142210
0.765101 1.017157 -0.106908
0.765101 1.021225 -0.071411
0.765101 1.024034 -0.035760
0.765101 1.025532 0.000000
0.765101 1.025671 0.035817
0.765101 1.024402 0.071633
0.765101 1.021682 0.107383
0.765101 1.017477 0.142997
0.765101 1.011766 0.178402
0.765101 1.004541 0.213522
0.765101 0.995811 0.248284
0.765101 0.985597 0.282616
0.765101 0.973940 0.316452
0.765101 0.960889 0.349735
0.765101 0.946509 0.382414
0.765101 0.930870 0.414450
0.765101 0.914049 0.445811
0.765101 0.896122 0.476477
0.765101 0.877167 0.506433
0.765101 0.857254 0.535672
0.765101 0.836447 0.564191
0.765101 0.814800 0.591987
0.765101 0.792357 0.619057
0.765101 0.769152 0.645395
0.765101 0.745207 0.670988
0.765101 0.720538 0.695815
0.765101 0.695151 0.719850
0.765101 0.669050 0.743055
0.765101 0.642236 0.765387
0.765101 0.614711 0.786795
0.765101 0.586483 0.807225
0.765101 0.557562 0.826620
0.765101 0.527968 0.844925
0.765101 0.497727 0.862089
0.765101 0.466876 0.878066
0.765101 0.435459 0.892824
0.765101 0.403527 0.906337
0.765101 0.371137 0.918597
0.765101 0.338349 0.929605
0.765101 0.305223 0.939379
0.765101 0.271819 0.947945
0.765101 0.238193 0.955341
0.765101 0.204397 0.961613
0.765101 0.170474 0.966808
0.765101 0.136462 0.970976
0.765101 0.102389 0.974163
0.765101 0.068277 0.976409
0.765101 0.034144 0.977743
0.765101 0.000000 0.978186
0.765101 -0.034144 0.977743
0.765101 -0.068277 0.976408
0.765101 -0.102389 0.974163
0.765101 -0.136462 0.970976
0.765101 -0.170474 0.966808
0.765101 -0.204397 0.961612
0.765101 -0.238193 0.955341
0.765101 -0.271819 0.947944
0.765101 -0.305222 0.939378
0.765101 -0.338348 0.929604
0.765101 -0.371137 0.918596
0.765101 -0.403527 0.906336
0.765101 -0.435458 0.892822
0.765101 -0.466875 0.878064
0.765101 -0.497726 0.862086
0.765101 -0.527966 0.844922
0.765101 -0.557560 0.826617
0.765101 -0.586480 0.807221
0.765101 -0.614708 0.786791
0.765101 -0.642232 0.765382
0.765101 -0.669045 0.743050
0.765101 -0.695146 0.719845
0.765101 -0.720533 0.695810
0.765101 -0.745202 0.670983
0.765101 -0.769147 0.645391
0.765101 -0.792352 0.619053
0.765101 -0.814794 0.591983
0.765101 -0.836441 0.564187
0.765101 -0.857249 0.535668
0.765101 -0.877162 0.506430
0.765101 -0.896117 0.476474
0.765101 -0.914044 0.445809
0.765101 -0.930866 0.414448
0.765101 -0.946506 0.382413
0.765101 -0.960887 0.349734
0.765101 -0.973937 0.316451
0.765101 -0.985596 0.282615
0.765101 -0.995809 0.248283
0.765101 -1.004540 0.213522
0.765101 -1.011766 0.178402
0.765101 -1.017478 0.142997
0.765101 -1.021684 0.107383
0.765101 -1.024406 0.071633
0.765101 -1.025678 0.035817
0.845638 -1.025887 -0.000000
0.845638 -1.024429 -0.035774
0.845638 -1.021665 -0.071442
0.845638 -1.017645 -0.106959
0.845638 -1.012414 -0.142286
0.845638 -1.006013 -0.177387
0.845638 -0.998474 -0.212232
0.845638 -0.989819 -0.246790
0.845638 -0.980061 -0.281028
0.845638 -0.969201 -0.314913
0.845638 -0.957236 -0.348405
0.845638 -0.944151 -0.381462
0.845638 -0.929933 -0.414033
0.845638 -0.914563 -0.446062
0.845638 -0.898026 -0.477489
0.845638 -0.880313 -0.508249
0.845638 -0.861421 -0.538276
0.845638 -0.841357 -0.567503
0.845638 -0.820140 -0.595867
0.845638 -0.797799 -0.623309
0.845638 -0.774377 -0.649779
0.845638 -0.749926 -0.675236
0.845638 -0.724507 -0.699649
0.845638 -0.698191 -0.722998
0.845638 -0.671051 -0.745277
0.845638 -0.643160 -0.766488
0.845638 -0.614593 -0.786643
0.845638 -0.585419 -0.805759
0.845638 -0.555699 -0.823857
0.845638 -0.525488 -0.840957
0.845638 -0.494831 -0.857072
0.845638 -0.463762 -0.872210
0.845638 -0.432309 -0.886364
0.845638 -0.400489 -0.899513
0.845638 -0.368316 -0.911615
0.845638 -0.335803 -0.922613
0.845638 -0.302964 -0.932428
0.845638 -0.269818 -0.940966
0.845638 -0.236393 -0.948119
0.845638 -0.202731 -0.953774
0.845638 -0.168889 -0.957817
0.845638 -0.134939 -0.960144
0.845638 -0.100971 -0.960671
0.845638 -0.067084 -0.959344
0.845638 -0.033390 -0.956151
0.845638 0.000000 -0.951128
0.845638 0.032978 -0.944366
0.845638 0.065452 -0.936009
0.845638 0.097354 -0.926258
0.845638 0.128645 -0.915359
0.845638 0.159327 -0.903589
0.845638 0.189440 -0.891246
0.845638 0.219065 -0.878623
0.845638 0.248319 -0.865991
0.845638 0.277344 -0.853579
0.845638 0.306300 -0.841553
0.845638 0.335346 -0.830010
0.845638 0.364626 -0.818964
0.845638 0.394259 -0.808351
0.845638 0.424320 -0.798031
0.845638 0.454836 -0.787800
0.845638 0.485780 -0.777411
0.845638 0.517070 -0.766587
0.845638 0.548575 -0.755048
0.845638 0.580124 -0.742525
0.845638 0.611518 -0.728778
0.845638 0.642538 -0.713611
0.845638 0.672966 -0.696877
0.845638 0.702592 -0.678485
0.845638 0.731224 -0.658397
0.845638 0.758699 -0.636624
0.845638 0.784886 -0.613220
0.845638 0.809689 -0.588273
0.845638 0.833044 -0.561896
0.845638 0.854923 -0.534215
0.845638 0.875320 -0.505366
0.845638 0.894255 -0.475484
0.845638 0.911763 -0.444696
0.845638 0.927889 -0.413123
0.845638 0.942685 -0.380869
0.845638 0.956201 -0.348029
0.845638 0.968484 -0.314679
0.845638 0.979571 -0.280888
0.845638 0.989491 -0.246708
0.845638 0.998258 -0.212186
0.845638 1.005873 -0.177363
0.845638 1.012325 -0.142273
0.845638 1.017589 -0.106953
0.845638 1.021631 -0.071439
0.845638 1.024409 -0.035773
0.845638 1.025875 0.000000
0.845638 1.025980 0.035828
0.845638 1.024679 0.071653
0.845638 1.021931 0.107409
0.845638 1.017703 0.143029
0.845638 1.011976 0.178439
0.845638 1.004743 0.213565
0.845638 0.996011 0.248333
0.845638 0.985804 0.282675
0.845638 0.974160 0.316524
0.845638 0.961128 0.349822
0.845638 0.946771 0.382520
0.845638 0.931157 0.414578
0.845638 0.914360 0.445963
0.845638 0.896458 0.476655
0.845638 0.877523 0.506638
0.845638 0.857625 0.535904
0.845638 0.836827 0.564447
0.845638 0.815183 0.592265
0.845638 0.792735 0.619352
0.845638 0.769518 0.645702
0.845638 0.745555 0.671301
0.845638 0.720862 0.696128
0.845638 0.695447 0.720157
0.845638 0.669316 0.743351
0.845638 0.642471 0.765667
0.845638 0.614916 0.787057
0.845638 0.586659 0.807467
0.845638 0.557713 0.826843
0.845638 0.528097 0.845131
0.845638 0.497839 0.862282
0.845638 0.466975 0.878252
0.845638 0.435549 0.893008
0.845638 0.403612 0.906528
0.845638 0.371219 0.918800
0.845638 0.338430 0.929828
0.845638 0.305303 0.939627
0.845638 0.271899 0.948224
0.845638 0.238271 0.955655
0.845638 0.204471 0.961962
0.845638 0.170542 0.967191
0.845638 0.136520 0.971391
0.845638 0.102435 0.974605
0.845638 0.068309 0.976871
0.845638 0.034160 0.978218
0.845638 0.000000 0.978665
0.845638 -0.034160 0.978218
0.845638 -0.068309 0.976871
0.845638 -0.102435 0.974605
0.845638 -0.136520 0.971391
0.845638 -0.170542 0.967191
0.845638 -0.204471 0.961961
0.845638 -0.238271 0.955654
0.845638 -0.271899 0.948223
0.845638 -0.305303 0.939626
0.845638 -0.338429 0.929827
0.845638 -0.371218 0.918798
0.845638 -0.403611 0.906525
0.845638 -0.435548 0.893005
0.845638 -0.466973 0.878248
0.845638 -0.497836 0.862277
0.845638 -0.528093 0.845126
0.845638 -0.557709 0.826837
0.845638 -0.586654 0.807460
0.845638 -0.614910 0.787049
0.845638 -0.642464 0.765659
0.845638 -0.669308 0.743342
0.845638 -0.695439 0.720148
0.845638 -0.720853 0.696119
0.845638 -0.745545 0.671292
0.845638 -0.769508 0.645693
0.845638 -0.792724 0.619344
0.845638 -0.815172 0.592257
0.845638 -0.836817 0.564440
0.845638 -0.857615 0.535897
0.845638 -0.877513 0.506633
0.845638 -0.896449 0.476650
0.845638 -0.914352 0.445960
0.845638 -0.931150 0.414575
0.845638 -0.946764 0.382518
0.845638 -0.961123 0.349820
0.845638 -0.974155 0.316522
0.845638 -0.985801 0.282674
0.845638 -0.996008 0.248333
0.845638 -1.004741 0.213564
0.845638 -1.011975 0.178438
0.845638 -1.017703 0.143029
0.845638 -1.021932 0.107409
0.845638 -1.024683 0.071653
0.845638 -1.025987 0.035828
0.926174 -1.026220 -0.000000
0.926174 -1.024798 -0.035787
0.926174 -1.022067 -0.071470
0.926174 -1.018075 -0.107004
0.926174 -1.012866 -0.142349
0.926174 -1.006479 -0.177469
0.926174 -0.998945 -0.212332
0.926174 -0.990286 -0.246906
0.926174 -0.980514 -0.281158
0.926174 -0.969633 -0.315053
0.926174 -0.957639 -0.348552
0.926174 -0.944521 -0.381611
0.926174 -0.930265 -0.414181
0.926174 -0.914857 -0.446206
0.926174 -0.898284 -0.477626
0.926174 -0.880537 -0.508378
0.926174 -0.861616 -0.538397
0.926174 -0.841529 -0.567618
0.926174 -0.820295 -0.595979
0.926174 -0.797945 -0.623423
0.926174 -0.774520 -0.649899
0.926174 -0.750072 -0.675368
0.926174 -0.724663 -0.699799
0.926174 -0.698359 -0.723172
0.926174 -0.671233 -0.745480
0.926174 -0.643358 -0.766724
0.926174 -0.614805 -0.786914
0.926174 -0.585642 -0.806067
0.926174 -0.555930 -0.824200
0.926174 -0.525722 -0.841332
0.926174 -0.495063 -0.857475
0.926174 -0.463988 -0.872635
0.926174 -0.432523 -0.886803
0.926174 -0.400687 -0.899959
0.926174 -0.368496 -0.912060
0.926174 -0.335963 -0.923050
0.926174 -0.303102 -0.932852
0.926174 -0.269934 -0.941373
0.926174 -0.236490 -0.948508
0.926174 -0.202810 -0.954145
0.926174 -0.168952 -0.958174
0.926174 -0.134988 -0.960492
0.926174 -0.101007 -0.961019
0.926174 -0.067109 -0.959703
0.926174 -0.033403 -0.956533
0.926174 0.000000 -0.951544
0.926174 0.032994 -0.944828
0.926174 0.065488 -0.936528
0.926174 0.097415 -0.926842
0.926174 0.128737 -0.916013
0.926174 0.159455 -0.904316
0.926174 0.189610 -0.892044
0.926174 0.219281 -0.879486
0.926174 0.248583 -0.866910
0.926174 0.277657 -0.854541
0.926174 0.306661 -0.842544
0.926174 0.335751 -0.831012
0.926174 0.365070 -0.819960
0.926174 0.394733 -0.809323
0.926174 0.424815 -0.798961
0.926174 0.455342 -0.788675
0.926174 0.486285 -0.778219
0.926174 0.517564 -0.767321
0.926174 0.549049 -0.755702
0.926174 0.580571 -0.743097
0.926174 0.611931 -0.729271
0.926174 0.642915 -0.714030
0.926174 0.673306 -0.697229
0.926174 0.702897 -0.678780
0.926174 0.731498 -0.658644
0.926174 0.758949 -0.636834
0.926174 0.785119 -0.613403
0.926174 0.809915 -0.588438
0.926174 0.833273 -0.562050
0.926174 0.855162 -0.534364
0.926174 0.875578 -0.505515
0.926174 0.894538 -0.475635
0.926174 0.912076 -0.444849
0.926174 0.928236 -0.413277
0.926174 0.943064 -0.381023
0.926174 0.956611 -0.348178
0.926174 0.968920 -0.314821
0.926174 0.980028 -0.281018
0.926174 0.989960 -0.246825
0.926174 0.998730 -0.212287
0.926174 1.006340 -0.177445
0.926174 1.012777 -0.142337
0.926174 1.018020 -0.106998
0.926174 1.022033 -0.071468
0.926174 1.024778 -0.035786
0.926174 1.026208 0.000000
0.926174 1.026277 0.035838
0.926174 1.024942 0.071671
0.926174 1.022163 0.107434
0.926174 1.017911 0.143058
0.926174 1.012166 0.178472
0.926174 1.004924 0.213603
0.926174 0.996191 0.248378
0.926174 0.985992 0.282729
0.926174 0.974362 0.316589
0.926174 0.961351 0.349903
0.926174 0.947019 0.382621
0.926174 0.931433 0.414701
0.926174 0.914665 0.446112
0.926174 0.896788 0.476831
0.926174 0.877876 0.506842
0.926174 0.857995 0.536135
0.926174 0.837208 0.564704
0.926174 0.815567 0.592544
0.926174 0.793115 0.619649
0.926174 0.769885 0.646011
0.926174 0.745904 0.671615
0.926174 0.721186 0.696441
0.926174 0.695742 0.720462
0.926174 0.669579 0.743643
0.926174 0.642702 0.765942
0.926174 0.615115 0.787311
0.926174 0.586828 0.807700
0.926174 0.557855 0.827054
0.926174 0.528217 0.845323
0.926174 0.497941 0.862459
0.926174 0.467064 0.878420
0.926174 0.435630 0.893174
0.926174 0.403688 0.906699
0.926174 0.371294 0.918985
0.926174 0.338505 0.930034
0.926174 0.305379 0.939861
0.926174 0.271975 0.948491
0.926174 0.238347 0.955958
0.926174 0.204544 0.962303
0.926174 0.170609 0.967570
0.926174 0.136578 0.971804
0.926174 0.102482 0.975046
0.926174 0.068342 0.977334
0.926174 0.034177 0.978695
0.926174 0.000000 0.979147
0.926174 -0.034177 0.978695
0.926174 -0.068342 0.977334
0.926174 -0.102481 0.975046
0.926174 -0.136578 0.971803
0.926174 -0.170609 0.967569
0.926174 -0.204544 0.962302
0.926174 -0.238347 0.955957
0.926174 -0.271975 0.948489
0.926174 -0.305379 0.939859
0.926174 -0.338504 0.930031
0.926174 -0.371292 0.918981
0.926174 -0.403686 0.906694
0.926174 -0.435627 0.893168
0.926174 -0.467061 0.878413
0.926174 -0.497936 0.862451
0.926174 -0.528211 0.845314
0.926174 -0.557848 0.827043
0.926174 -0.586819 0.807687
0.926174 -0.615104 0.787298
0.926174 -0.642689 0.765928
0.926174 -0.669566 0.743628
0.926174 -0.695727 0.720446
0.926174 -0.721169 0.696425
0.926174 -0.745886 0.671599
0.926174 -0.769867 0.645995
0.926174 -0.793096 0.619634
0.926174 -0.815548 0.592530
0.926174 -0.837189 0.564691
0.926174 -0.857977 0.536124
0.926174 -0.877859 0.506832
0.926174 -0.896772 0.476822
0.926174 -0.914650 0.446105
0.926174 -0.931420 0.414695
0.926174 -0.947008 0.382616
0.926174 -0.961342 0.349900
0.926174 -0.974354 0.316587
0.926174 -0.985985 0.282727
0.926174 -0.996186 0.248377
0.926174 -1.004920 0.213602
0.926174 -1.012164 0.178472
0.926174 -1.017910 0.143058
0.926174 -1.022164 0.107434
0.926174 -1.024945 0.071671
0.926174 -1.026284 0.035839
1.006711 -1.026542 -0.000000
1.006711 -1.025160 -0.035799
1.006711 -1.022465 -0.071498
1.006711 -1.018503 -0.107049
1.006711 -1.013318 -0.142413
1.006711 -1.006946 -0.177552
1.006711 -0.999417 -0.212433
1.006711 -0.990753 -0.247023
1.006711 -0.980967 -0.281288
1.006711 -0.970064 -0.315193
1.006711 -0.958039 -0.348698
1.006711 -0.944886 -0.381759
1.006711 -0.930591 -0.414326
1.006711 -0.915143 -0.446345
1.006711 -0.898531 -0.477757
1.006711 -0.880748 -0.508500
1.006711 -0.861796 -0.538510
1.006711 -0.841684 -0.567723
1.006711 -0.820433 -0.596080
1.006711 -0.798074 -0.623523
1.006711 -0.774647 -0.650006
1.006711 -0.750204 -0.675486
1.006711 -0.724805 -0.699936
1.006711 -0.698516 -0.723334
1.006711 -0.671406 -0.745672
1.006711 -0.643549 -0.766951
1.006711 -0.615012 -0.787179
1.006711 -0.585863 -0.806371
1.006711 -0.556161 -0.824542
1.006711 -0.525958 -0.841709
1.006711 -0.495299 -0.857883
1.006711 -0.464219 -0.873069
1.006711 -0.432744 -0.887257
1.006711 -0.400895 -0.900425
1.006711 -0.368687 -0.912533
1.006711 -0.336136 -0.923526
1.006711 -0.303257 -0.933328
1.006711 -0.270071 -0.941849
1.006711 -0.236610 -0.948989
1.006711 -0.202915 -0.954638
1.006711 -0.169043 -0.958690
1.006711 -0.135066 -0.961047
1.006711 -0.101071 -0.961630
1.006711 -0.067157 -0.960391
1.006711 -0.033430 -0.957318
1.006711 0.000000 -0.952449
1.006711 0.033031 -0.945870
1.006711 0.065572 -0.937724
1.006711 0.097558 -0.928203
1.006711 0.128952 -0.917544
1.006711 0.159755 -0.906015
1.006711 0.190004 -0.893900
1.006711 0.219778 -0.881482
1.006711 0.249188 -0.869021
1.006711 0.278370 -0.856736
1.006711 0.307477 -0.844786
1.006711 0.336660 -0.833264
1.006711 0.366059 -0.822182
1.006711 0.395784 -0.811477
1.006711 0.425906 -0.801012
1.006711 0.456450 -0.790594
1.006711 0.487387 -0.779982
1.006711 0.518637 -0.768911
1.006711 0.550073 -0.757111
1.006711 0.581530 -0.744324
1.006711 0.612812 -0.730320
1.006711 0.643710 -0.714912
1.006711 0.674013 -0.697961
1.006711 0.703517 -0.679378
1.006711 0.732037 -0.659129
1.006711 0.759417 -0.637227
1.006711 0.785530 -0.613723
1.006711 0.810281 -0.588704
1.006711 0.833609 -0.562277
1.006711 0.855483 -0.534565
1.006711 0.875898 -0.505700
1.006711 0.894867 -0.475809
1.006711 0.912423 -0.445018
1.006711 0.928606 -0.413442
1.006711 0.943461 -0.381183
1.006711 0.957034 -0.348332
1.006711 0.969366 -0.314966
1.006711 0.980492 -0.281152
1.006711 0.990434 -0.246943
1.006711 0.999207 -0.212388
1.006711 1.006809 -0.177528
1.006711 1.013231 -0.142400
1.006711 1.018449 -0.107043
1.006711 1.022432 -0.071495
1.006711 1.025140 -0.035799
1.006711 1.026532 0.000000
1.006711 1.026562 0.035848
1.006711 1.025190 0.071688
1.006711 1.022378 0.107456
1.006711 1.018100 0.143085
1.006711 1.012337 0.178502
1.006711 1.005084 0.213637
1.006711 0.996351 0.248418
1.006711 0.986160 0.282777
1.006711 0.974546 0.316649
1.006711 0.961558 0.349979
1.006711 0.947254 0.382715
1.006711 0.931698 0.414819
1.006711 0.914960 0.446256
1.006711 0.897113 0.477003
1.006711 0.878225 0.507044
1.006711 0.858364 0.536365
1.006711 0.837589 0.564961
1.006711 0.815952 0.592824
1.006711 0.793495 0.619947
1.006711 0.770254 0.646320
1.006711 0.746253 0.671929
1.006711 0.721509 0.696753
1.006711 0.696036 0.720766
1.006711 0.669839 0.743932
1.006711 0.642927 0.766211
1.006711 0.615307 0.787557
1.006711 0.586989 0.807921
1.006711 0.557988 0.827252
1.006711 0.528327 0.845500
1.006711 0.498033 0.862619
1.006711 0.467144 0.878570
1.006711 0.435702 0.893321
1.006711 0.403756 0.906851
1.006711 0.371361 0.919151
1.006711 0.338573 0.930223
1.006711 0.305450 0.940079
1.006711 0.272048 0.948744
1.006711 0.238420 0.956250
1.006711 0.204614 0.962635
1.006711 0.170674 0.967942
1.006711 0.136636 0.972212
1.006711 0.102528 0.975486
1.006711 0.068374 0.977798
1.006711 0.034194 0.979174
1.006711 0.000000 0.979631
1.006711 -0.034194 0.979174
1.006711 -0.068374 0.977798
1.006711 -0.102528 0.975486
1.006711 -0.136635 0.972212
1.006711 -0.170674 0.967941
1.006711 -0.204614 0.962634
1.006711 -0.238419 0.956248
1.006711 -0.272047 0.948741
1.006711 -0.305449 0.940075
1.006711 -0.338571 0.930218
1.006711 -0.371359 0.919145
1.006711 -0.403752 0.906843
1.006711 -0.435697 0.893311
1.006711 -0.467137 0.878557
1.006711 -0.498025 0.862604
1.006711 -0.528316 0.845483
1.006711 -0.557975 0.827232
1.006711 -0.586973 0.807899
1.006711 -0.615289 0.787533
1.006711 -0.642906 0.766185
1.006711 -0.669815 0.743905
1.006711 -0.696008 0.720738
1.006711 -0.721480 0.696725
1.006711 -0.746221 0.671901
1.006711 -0.770221 0.646292
1.006711 -0.793462 0.619920
1.006711 -0.815918 0.592799
1.006711 -0.837556 0.564938
1.006711 -0.858332 0.536345
1.006711 -0.878195 0.507026
1.006711 -0.897085 0.476988
1.006711 -0.914935 0.446244
1.006711 -0.931675 0.414809
1.006711 -0.947234 0.382707
1.006711 -0.961541 0.349972
1.006711 -0.974532 0.316645
1.006711 -0.986148 0.282773
1.006711 -0.996342 0.248416
1.006711 -1.005077 0.213636
1.006711 -1.012331 0.178501
1.006711 -1.018097 0.143084
1.006711 -1.022377 0.107456
1.006711 -1.025191 0.071688
1.006711 -1.026567 0.035849
1.087248 -1.026854 -0.000000
1.087248 -1.025513 -0.035812
1.087248 -1.022856 -0.071525
1.087248 -1.018928 -0.107094
1.087248 -1.013767 -0.142476
1.087248 -1.007412 -0.177634
1.087248 -0.999889 -0.212533
1.087248 -0.991221 -0.247139
1.087248 -0.981420 -0.281418
1.087248 -0.970493 -0.315332
1.087248 -0.958436 -0.348842
1.087248 -0.945245 -0.381904
1.087248 -0.930909 -0.414468
1.087248 -0.915419 -0.446480
1.087248 -0.898765 -0.477882
1.087248 -0.880945 -0.508614
1.087248 -0.861960 -0.538613
1.087248 -0.841824 -0.567817
1.087248 -0.820555 -0.596168
1.087248 -0.798186 -0.623611
1.087248 -0.774757 -0.650099
1.087248 -0.750320 -0.675591
1.087248 -0.724933 -0.700060
1.087248 -0.698660 -0.723484
1.087248 -0.671570 -0.745854
1.087248 -0.643732 -0.767169
1.087248 -0.615213 -0.787437
1.087248 -0.586080 -0.806670
1.087248 -0.556390 -0.824882
1.087248 -0.526194 -0.842087
1.087248 -0.495537 -0.858296
1.087248 -0.464454 -0.873510
1.087248 -0.432971 -0.887722
1.087248 -0.401110 -0.900908
1.087248 -0.368888 -0.913030
1.087248 -0.336321 -0.924035
1.087248 -0.303426 -0.933849
1.087248 -0.270225 -0.942388
1.087248 -0.236750 -0.949554
1.087248 -0.203043 -0.955243
1.087248 -0.169160 -0.959354
1.087248 -0.135171 -0.961792
1.087248 -0.101161 -0.962484
1.087248 -0.067226 -0.961383
1.087248 -0.033471 -0.958479
1.087248 0.000000 -0.953807
1.087248 0.033086 -0.947452
1.087248 0.065700 -0.939551
1.087248 0.097777 -0.930289
1.087248 0.129282 -0.919892
1.087248 0.160214 -0.908620
1.087248 0.190609 -0.896743
1.087248 0.220539 -0.884535
1.087248 0.250112 -0.872244
1.087248 0.279457 -0.860080
1.087248 0.308718 -0.848197
1.087248 0.338042 -0.836682
1.087248 0.367558 -0.825549
1.087248 0.397372 -0.814734
1.087248 0.427553 -0.804109
1.087248 0.458119 -0.793486
1.087248 0.489044 -0.782635
1.087248 0.520249 -0.771301
1.087248 0.551610 -0.759226
1.087248 0.582965 -0.746161
1.087248 0.614127 -0.731889
1.087248 0.644894 -0.716228
1.087248 0.675060 -0.699045
1.087248 0.704429 -0.680260
1.087248 0.732823 -0.659837
1.087248 0.760089 -0.637791
1.087248 0.786104 -0.614172
1.087248 0.810777 -0.589064
1.087248 0.834046 -0.562571
1.087248 0.855881 -0.534814
1.087248 0.876273 -0.505917
1.087248 0.895237 -0.476006
1.087248 0.912799 -0.445202
1.087248 0.928997 -0.413616
1.087248 0.943873 -0.381349
1.087248 0.957468 -0.348490
1.087248 0.969821 -0.315114
1.087248 0.980962 -0.281286
1.087248 0.990914 -0.247063
1.087248 0.999687 -0.212490
1.087248 1.007281 -0.177611
1.087248 1.013684 -0.142464
1.087248 1.018876 -0.107088
1.087248 1.022825 -0.071523
1.087248 1.025495 -0.035811
1.087248 1.026845 0.000000
1.087248 1.026833 0.035858
1.087248 1.025422 0.071704
1.087248 1.022576 0.107477
1.087248 1.018269 0.143108
1.087248 1.012487 0.178529
1.087248 1.005224 0.213667
1.087248 0.996490 0.248453
1.087248 0.986308 0.282819
1.087248 0.974712 0.316703
1.087248 0.961749 0.350048
1.087248 0.947474 0.382804
1.087248 0.931951 0.414931
1.087248 0.915247 0.446396
1.087248 0.897430 0.477172
1.087248 0.878570 0.507243
1.087248 0.858730 0.536594
1.087248 0.837968 0.565217
1.087248 0.816336 0.593103
1.087248 0.793876 0.620244
1.087248 0.770622 0.646629
1.087248 0.746601 0.672243
1.087248 0.721831 0.697064
1.087248 0.696326 0.721066
1.087248 0.670095 0.744216
1.087248 0.643148 0.766473
1.087248 0.615492 0.787794
1.087248 0.587142 0.808131
1.087248 0.558113 0.827436
1.087248 0.528427 0.845661
1.087248 0.498116 0.862762
1.087248 0.467213 0.878701
1.087248 0.435764 0.893448
